ncols         296
nrows         57
xllcorner     86.3535813265
yllcorner     27.5326885533
cellsize      0.0028798133754293
NODATA_value  -9999
-9999 -9999 -9999 -9999 -9999 -9999 -9999 -9999 -9999 -9999 -9999 -9999 -9999 -9999 -9999 -9999 -9999 -9999 -9999 -9999 -9999 -9999 -9999 -9999 -9999 -9999 -9999 -9999 -9999 -9999 -9999 -9999 -9999 -9999 -9999 -9999 -9999 -9999 -9999 -9999 -9999 -9999 -9999 -9999 -9999 -9999 -9999 -9999 -9999 -9999 -9999 -9999 -9999 -9999 -9999 -9999 -9999 -9999 -9999 -9999 -9999 -9999 -9999 -9999 -9999 5013 4924 4869 4817 4850 4974 4883 4869 4869 4808 4691 4680 4661 4632 4624 4551 4425 4425 4405 4545 4806 4764 4764 4802 4974 4955 4739 4557 4557 4584 4837 4949 4990 4934 5023 5023 5023 4861 4728 4452 4304 4214 4080 3941 3895 3449 3370 3612 4024 4024 4044 3709 3495 3171 3006 3006 3006 2660 2522 2417 2640 2648 2686 2691 2799 2923 3299 3409 3631 3662 3783 4098 4084 4084 4082 4255 4396 4396 4618 4863 5052 5205 5235 5235 5311 5204 4959 4959 4880 4736 4599 4463 4463 4206 4174 4104 3937 3937 4058 4507 4649 4746 5124 5286 5201 5231 5382 5162 5114 5010 5017 5017 5103 5211 5425 5472 5517 5497 5363 5483 5512 5539 5726 5950 5950 5951 5775 5462 5290 5225 5225 5121 5052 4985 4955 4859 4706 4690 4690 4485 4003 4076 4170 4472 4472 4587 4721 4836 4836 4924 5113 5164 5164 5209 5264 5586 5714 -9999 -9999 -9999 -9999 -9999 -9999 -9999 -9999 -9999 -9999 -9999 -9999 -9999 -9999 -9999 -9999 -9999 -9999 -9999 -9999 -9999 -9999 -9999 -9999 -9999 -9999 -9999 -9999 -9999 -9999 -9999 -9999 -9999 -9999 -9999 -9999 -9999 -9999 -9999 -9999 -9999 -9999 -9999 -9999 -9999 -9999 -9999 -9999 -9999 -9999 -9999 -9999 -9999 -9999 -9999 -9999 -9999 -9999 -9999 -9999 -9999 -9999 -9999 -9999 -9999 -9999 -9999 -9999 -9999 -9999 -9999 -9999 -9999 -9999
-9999 -9999 -9999 -9999 -9999 -9999 -9999 -9999 -9999 -9999 -9999 -9999 -9999 -9999 -9999 -9999 -9999 -9999 -9999 -9999 -9999 -9999 -9999 -9999 -9999 -9999 -9999 -9999 -9999 -9999 -9999 -9999 -9999 -9999 -9999 -9999 -9999 -9999 -9999 -9999 -9999 -9999 -9999 -9999 -9999 -9999 -9999 -9999 -9999 -9999 -9999 -9999 -9999 -9999 -9999 -9999 -9999 -9999 -9999 -9999 -9999 -9999 -9999 -9999 -9999 4984 4882 4827 4710 4796 4850 5022 4918 4918 4862 4753 4746 4593 4525 4493 4425 4388 4388 4356 4557 4750 4841 4841 4847 4913 4863 4757 4518 4518 4510 4699 4746 4767 4859 4924 4924 4924 4879 4892 4534 4385 4335 4229 4169 3860 3533 3307 3445 3842 3842 4014 3569 3378 3077 2824 2824 2824 2621 2455 2307.25 2578 2590 2595 2633 2738 2838 3088 3272 3470 3472 3611 3878 3901 3901 3897 4126 4200 4200 4414 4511 4861 5014 4985 4985 5477 5291 4977 4929 4857 4708 4537 4435 4435 4181 4092 4015 3918 3918 4070 4623 4722 4819 5232 5095 4941 4998 5111 5032 4990 4951 4934 4934 4957 5049 5246 5287 5368 5337 5237 5392 5427 5501 5622 5827 5827 6064 5781 5494 5345 5345 5211 5099 5008 5012 4977 4815 4730 4676 4676 4316 3964 3997 4101 4402 4402 4393 4678 4763 4763 4835 5068 5196 5196 5365 5394 5696 -9999 -9999 -9999 -9999 -9999 -9999 -9999 -9999 -9999 -9999 -9999 -9999 -9999 -9999 -9999 -9999 -9999 -9999 -9999 -9999 -9999 -9999 -9999 -9999 -9999 -9999 -9999 -9999 -9999 -9999 -9999 -9999 -9999 -9999 -9999 -9999 -9999 -9999 -9999 -9999 -9999 -9999 -9999 -9999 -9999 -9999 -9999 -9999 -9999 -9999 -9999 -9999 -9999 -9999 -9999 -9999 -9999 -9999 -9999 -9999 -9999 -9999 -9999 -9999 -9999 -9999 -9999 -9999 -9999 -9999 -9999 -9999 -9999 -9999 -9999
-9999 -9999 -9999 -9999 -9999 -9999 -9999 -9999 -9999 -9999 -9999 -9999 -9999 -9999 -9999 -9999 -9999 -9999 -9999 -9999 -9999 -9999 -9999 -9999 -9999 -9999 -9999 -9999 -9999 -9999 -9999 -9999 -9999 -9999 -9999 -9999 -9999 -9999 -9999 -9999 -9999 -9999 -9999 -9999 -9999 -9999 -9999 -9999 -9999 -9999 -9999 -9999 -9999 -9999 -9999 -9999 -9999 -9999 -9999 -9999 -9999 -9999 -9999 -9999 -9999 4861 4916 4889 4686 4762 4814 4916 4921 4921 4886 4917 4830 4535 4477 4391 4302 4326 4326 4343 4490 4654 4675 4675 4702 4898 4813 4740 4550 4550 4502 4649 4846 4702 4695 4748 4748 4748 4694 4759 4752 4491 4391 4195 4041 3876 3503 3256 3241 3724 3724 3711 3450 3197 2897 2821 2821 2821 2679 2443 2307.25 2523 2579 2581 2625 2783 2841 3024 3165 3271 3360 3558 3655 3692 3692 3789 3971 4068 4068 4199 4412 4659 4679 4809 4809 5437 5473 5136 4948 4863 4732 4605 4465 4465 4274 4179 4006 3888 3888 4056 4519 4669 4798 4989 4831 4720 4669 4799 4851 4815 4812 4834 4834 4863 4864 5099 5119 5187 5191 5209 5267 5333 5394 5653 5855 5855 6163 5894 5577 5406 5406 5253 5150 5098 5092 5085 4882 4790 4535 4535 4225 3929 3973 4131 4228 4228 4342 4542 4647 4647 4718 4976 5181 5181 5412 5571 5773 -9999 -9999 -9999 -9999 -9999 -9999 -9999 -9999 -9999 -9999 -9999 -9999 -9999 -9999 -9999 -9999 -9999 -9999 -9999 -9999 -9999 -9999 -9999 -9999 -9999 -9999 -9999 -9999 -9999 -9999 -9999 -9999 -9999 -9999 -9999 -9999 -9999 -9999 -9999 -9999 -9999 -9999 -9999 -9999 -9999 -9999 -9999 -9999 -9999 -9999 -9999 -9999 -9999 -9999 -9999 -9999 -9999 -9999 -9999 -9999 -9999 -9999 -9999 -9999 -9999 -9999 -9999 -9999 -9999 -9999 -9999 -9999 -9999 -9999 -9999
-9999 -9999 -9999 -9999 -9999 -9999 -9999 -9999 -9999 -9999 -9999 -9999 -9999 -9999 -9999 -9999 -9999 -9999 -9999 -9999 -9999 -9999 -9999 -9999 -9999 -9999 -9999 -9999 -9999 -9999 -9999 -9999 -9999 -9999 -9999 -9999 -9999 -9999 -9999 -9999 -9999 -9999 -9999 -9999 -9999 -9999 -9999 -9999 -9999 -9999 -9999 -9999 -9999 -9999 -9999 -9999 -9999 -9999 -9999 -9999 -9999 -9999 -9999 -9999 -9999 4730 4621 4645 4657 4608 4628 4749 4860 4860 4775 4778 4841 4661 4633 4413 4251 4213 4213 4216 4424 4489 4625 4625 4804 4847 4813 4759 4514 4514 4521 4626 4788 4613 4367 4421 4421 4421 4372 4413 4599 4426 4275 4153 4007 3682 3388 3204 3088 3357 3357 3564 3383 3219 2949 2839 2839 2839 2655 2547 2357 2361 2448 2548 2748 2797 2806 2899 3039 3130 3222 3335 3348 3446 3446 3614 3704 3832 3832 4022 4122 4297 4522 4756 4756 5340 5485 5293 5121 5048 4903 4747 4601 4601 4421 4295 4098 3856 3856 3987 4493 4705 4731 4459 4370 4412 4510 4584 4760.5 4762 4762 4760.5 4760.5 4760.5 4760.5 5044 5147 5168 5172 5212 5339 5390 5423 5809 6159 6159 5884 5766 5727 5570 5570 5533 5511 5473 5481 5451 5084 4941 4516 4516 4365 4039 3883 3780 3964 3964 4117 4317 4369 4369 4404 4719 4831 4831 4936 5305 -9999 -9999 -9999 -9999 -9999 -9999 -9999 -9999 -9999 -9999 -9999 -9999 -9999 -9999 -9999 -9999 -9999 -9999 -9999 -9999 -9999 -9999 -9999 -9999 -9999 -9999 -9999 -9999 -9999 -9999 -9999 -9999 -9999 -9999 -9999 -9999 -9999 -9999 -9999 -9999 -9999 -9999 -9999 -9999 -9999 -9999 -9999 -9999 -9999 -9999 -9999 -9999 -9999 -9999 -9999 -9999 -9999 -9999 -9999 -9999 -9999 -9999 -9999 -9999 -9999 -9999 -9999 -9999 -9999 -9999 -9999 -9999 -9999 -9999 -9999 -9999
-9999 -9999 -9999 -9999 -9999 -9999 -9999 -9999 -9999 -9999 -9999 -9999 -9999 -9999 -9999 -9999 -9999 -9999 -9999 -9999 -9999 -9999 -9999 -9999 -9999 -9999 -9999 -9999 -9999 -9999 -9999 -9999 -9999 -9999 -9999 -9999 -9999 -9999 -9999 -9999 -9999 -9999 -9999 -9999 -9999 -9999 -9999 -9999 -9999 -9999 -9999 -9999 -9999 -9999 -9999 -9999 -9999 -9999 -9999 -9999 -9999 -9999 -9999 -9999 -9999 4658 4608 4627 4699 4622 4589 4689 4751 4751 4757 4730 4692 4648 4550 4402 4248 4142 4142 4154 4492 4626 4625 4625 4684 4818 4738 4670 4461 4461 4473 4611 4675 4609 4495 4365 4365 4365 4210 4279 4437 4315 4186 3995 3830 3649 3410 3262 3024 3310 3310 3448 3477 3343 3088 2947 2947 2947 2768 2670 2435 2311 2487 2629 2704 2718 2742 2848 2941 3049 3107 3149 3229 3331 3331 3447 3575 3745 3745 3958 4084 4221 4494 4651 4651 5145 5083 5071 5053 5016 4932 4791 4687 4687 4492 4357 4170 3809 3809 3898 4314 4278 4177 4077 4240 4328 4484 4725 4693.75 4702 4728 4856 4856 4889 4948 5257 5412 5396 5407 5444 5615 5605 5652 6146 6030 6030 5822 5648 5428 5233 5233 5227 5181 5177 5159 5089 5030 4910 4693 4693 4574 4138 3905 3758 4015 4015 4113 4217 4243 4243 4399 4696 4820 4820 4930 5036 -9999 -9999 -9999 -9999 -9999 -9999 -9999 -9999 -9999 -9999 -9999 -9999 -9999 -9999 -9999 -9999 -9999 -9999 -9999 -9999 -9999 -9999 -9999 -9999 -9999 -9999 -9999 -9999 -9999 -9999 -9999 -9999 -9999 -9999 -9999 -9999 -9999 -9999 -9999 -9999 -9999 -9999 -9999 -9999 -9999 -9999 -9999 -9999 -9999 -9999 -9999 -9999 -9999 -9999 -9999 -9999 -9999 -9999 -9999 -9999 -9999 -9999 -9999 -9999 -9999 -9999 -9999 -9999 -9999 -9999 -9999 -9999 -9999 -9999 -9999 -9999
-9999 -9999 -9999 -9999 -9999 -9999 -9999 -9999 -9999 -9999 -9999 -9999 -9999 -9999 -9999 -9999 -9999 -9999 -9999 -9999 -9999 -9999 -9999 -9999 -9999 -9999 -9999 -9999 -9999 -9999 -9999 -9999 -9999 -9999 -9999 -9999 -9999 -9999 -9999 -9999 -9999 -9999 -9999 -9999 -9999 -9999 -9999 -9999 -9999 -9999 -9999 -9999 -9999 -9999 -9999 -9999 -9999 -9999 -9999 -9999 -9999 -9999 -9999 -9999 -9999 4559 4552 4570 4708 4535 4532 4640 4716 4716 4782 4645 4604 4545 4471 4369 4231 4083 4083 4065 4435 4499 4594 4594 4661 4744 4731 4669 4398 4398 4449 4666 4553 4499 4457 4397 4397 4397 4129 4148 4292 4443 4343 4165 4004 3826 3442 3108 2908 2902 2902 3001 3222 3361 3223 3055 3055 3055 2724 2504 2319 2264 2406 2611 2748 2803 2812 2826 2832 2881 2927 3012 3156 3218 3218 3302 3509 3710 3710 3918 4086 4208 4386 4660 4660 4945 5015 5019 4971 4982 4983 4781 4670 4670 4438 4312 4163 3813 3813 3855 4118 4085 3987 4118 4299 4388 4551 4786 4693.75 4693.75 4756 4878 4878 4856 4929 5396 5550 5552 5569 5549 5713 5769 5771 5975 5775 5775 5610 5515 5269 5033 5033 5004 4958 4955 4920 4845 4850 4912 4599 4599 4506 4165 3912 3732 3959 3959 4026 4146 4211 4211 4387 4655 4757 4757 4965 5025 -9999 -9999 -9999 -9999 -9999 -9999 -9999 -9999 -9999 -9999 -9999 -9999 -9999 -9999 -9999 -9999 -9999 -9999 -9999 -9999 -9999 -9999 -9999 -9999 -9999 -9999 -9999 -9999 -9999 -9999 -9999 -9999 -9999 -9999 -9999 -9999 -9999 -9999 -9999 -9999 -9999 -9999 -9999 -9999 -9999 -9999 -9999 -9999 -9999 -9999 -9999 -9999 -9999 -9999 -9999 -9999 -9999 -9999 -9999 -9999 -9999 -9999 -9999 -9999 -9999 -9999 -9999 -9999 -9999 -9999 -9999 -9999 -9999 -9999 -9999 -9999
-9999 -9999 -9999 -9999 -9999 -9999 -9999 -9999 -9999 -9999 -9999 -9999 -9999 -9999 -9999 -9999 -9999 -9999 -9999 -9999 -9999 -9999 -9999 -9999 -9999 -9999 -9999 -9999 -9999 -9999 -9999 -9999 -9999 -9999 -9999 -9999 -9999 -9999 -9999 -9999 -9999 -9999 -9999 -9999 -9999 -9999 -9999 -9999 -9999 -9999 -9999 -9999 -9999 -9999 -9999 -9999 -9999 -9999 -9999 -9999 -9999 -9999 -9999 -9999 4683 4555 4504 4554 4651 4503 4454 4599 4673 4673 4762 4625 4568 4489 4423 4335 4198 4060 4060 4050 4358 4439 4586 4586 4658 4486 4598 4588 4306 4306 4331 4488 4620 4469 4377 4253 4253 4253 4097 3957 4084 4164 4138 3906 3678 3546 3372 3134 2893 2690 2690 2754 3089 3187 3214 3214 2992 2992 2592 2420 2302 2194 2389 2515 2614 2774 2785 2934 2969 3000 3003 2992 3140 3227 3227 3338 3520 3641 3641 3774 3939 4016 4278 4487 4487 4848 5122 5025 4974 4904 4882 4805 4630 4630 4438 4321 4131 3846 3846 3776 3829 3894 3951 4174 4384 4613 4658 4771 4774 4774 4803 4925 4925 4900 4936 5541 5741 5749 5754 5705 5856 5917 5958 5588 5440 5440 5254 5238 5119 4827 4827 4701 4653 4608 4587 4517 4593 4675 4446 4446 4352 4153 3947 3704 3878 3878 4015 4227 4347 4347 4406 4633 4731 4731 4935 5130 -9999 -9999 -9999 -9999 -9999 -9999 -9999 -9999 -9999 -9999 -9999 -9999 -9999 -9999 -9999 -9999 -9999 -9999 -9999 -9999 -9999 -9999 -9999 -9999 -9999 -9999 -9999 -9999 -9999 -9999 -9999 -9999 -9999 -9999 -9999 -9999 -9999 -9999 -9999 -9999 -9999 -9999 -9999 -9999 -9999 -9999 -9999 -9999 -9999 -9999 -9999 -9999 -9999 -9999 -9999 -9999 -9999 -9999 -9999 -9999 -9999 -9999 -9999 -9999 -9999 -9999 -9999 -9999 -9999 -9999 -9999 -9999 -9999 -9999 -9999 -9999
-9999 -9999 -9999 -9999 -9999 -9999 -9999 -9999 -9999 -9999 -9999 -9999 -9999 -9999 -9999 -9999 -9999 -9999 -9999 -9999 -9999 -9999 -9999 -9999 -9999 -9999 -9999 -9999 -9999 -9999 -9999 -9999 -9999 -9999 -9999 -9999 -9999 -9999 -9999 -9999 -9999 -9999 -9999 -9999 -9999 -9999 -9999 -9999 -9999 -9999 -9999 -9999 -9999 -9999 -9999 -9999 -9999 -9999 -9999 -9999 -9999 -9999 -9999 -9999 4644 4620 4566 4464 4489 4194 4336 4442 4463 4463 4615 4623 4598 4505 4409 4257 4082 3969 3969 3985 4261 4409 4551 4551 4410 4453 4506 4627 4405 4405 4257 4240 4366 4452 4290 4149 4149 4149 3935 3877 3744 3756 3815 3941 3901 3687 3424 3280 3106 2795 2795 2569 2636 2804 2923 2923 2812 2812 2442 2257 2085 2256 2306 2400 2462 2406 2547 2646 2755 2837 2859 2927 3174 3255 3255 3317 3541 3667 3667 3849 4000 4130 4379 4625 4625 4983 4925 4803 4733 4683 4584 4516 4492 4492 4462 4332 4047 3683 3683 3770 4154 4234 4285 4412 4497 4633 4880 5011 4849 4831 4917 5085 5085 5256 5231 5505 5570 5509 5500 5491 5518 5597 5552 5169 4981 4981 4794 4682 4589 4470 4470 4280 4114 4108 4122 4165 4317 4396 4364 4364 4255 3962 3840 3624 3800 3800 3916 4234 4327 4327 4348 4501 4654 4654 4892 5012 -9999 -9999 -9999 -9999 -9999 -9999 -9999 -9999 -9999 -9999 -9999 -9999 -9999 -9999 -9999 -9999 -9999 -9999 -9999 -9999 -9999 -9999 -9999 -9999 -9999 -9999 -9999 -9999 -9999 -9999 -9999 -9999 -9999 -9999 -9999 -9999 -9999 -9999 -9999 -9999 -9999 -9999 -9999 -9999 -9999 -9999 -9999 -9999 -9999 -9999 -9999 -9999 -9999 -9999 -9999 -9999 -9999 -9999 -9999 -9999 -9999 -9999 -9999 -9999 -9999 -9999 -9999 -9999 -9999 -9999 -9999 -9999 -9999 -9999 -9999 -9999
-9999 -9999 -9999 -9999 -9999 -9999 -9999 -9999 -9999 -9999 -9999 -9999 -9999 -9999 -9999 -9999 -9999 -9999 -9999 -9999 -9999 -9999 -9999 -9999 -9999 -9999 -9999 -9999 -9999 -9999 -9999 -9999 -9999 -9999 -9999 -9999 -9999 -9999 -9999 -9999 -9999 -9999 -9999 -9999 -9999 -9999 -9999 -9999 -9999 -9999 -9999 -9999 -9999 -9999 -9999 -9999 -9999 -9999 -9999 -9999 -9999 -9999 -9999 -9999 4582 4530 4461 4453 4258 4161 4256 4413 4460 4460 4586 4521 4502 4412 4388 4236 4053 3919 3919 3928 4169 4345 4372 4372 4339 4512 4538 4558 4417 4417 4316 4149 4197 4270 4303 4221 4221 4221 3915 3916 3642 3561 3638 3765 3954 3826 3464 3293 3109 2766 2766 2589 2443 2577 2704 2704 2659 2659 2342 2155 2012 2276 2297 2335 2378 2461 2657 2785 2833 2891 2979 3007 3119 3167 3167 3275 3513 3597 3597 3846 4016 4161 4443 4600 4600 4925 4894 4721 4637 4578 4463 4384 4307 4307 4273 4082 3868 3662 3662 3867 4254 4420 4475 4528 4634 4675 4877 5150 4961 4931 5051 5142 5142 5379 5435 5569 5542 5510 5480 5479 5512 5499 5310 5004 4877 4877 4679 4521 4412 4256 4256 4102 3998 3944 3974 4115 4319 4388 4271 4271 4174 3909 3773 3596 3802 3802 3942 4206 4303 4303 4386 4475 4606 4606 4864 5081 -9999 -9999 -9999 -9999 -9999 -9999 -9999 -9999 -9999 -9999 -9999 -9999 -9999 -9999 -9999 -9999 -9999 -9999 -9999 -9999 -9999 -9999 -9999 -9999 -9999 -9999 -9999 -9999 -9999 -9999 -9999 -9999 -9999 -9999 -9999 -9999 -9999 -9999 -9999 -9999 -9999 -9999 -9999 -9999 -9999 -9999 -9999 -9999 -9999 -9999 -9999 -9999 -9999 -9999 -9999 -9999 -9999 -9999 -9999 -9999 -9999 -9999 -9999 -9999 -9999 -9999 -9999 -9999 -9999 -9999 -9999 -9999 -9999 -9999 -9999 -9999
-9999 -9999 -9999 -9999 -9999 -9999 -9999 -9999 -9999 -9999 -9999 -9999 -9999 -9999 -9999 -9999 -9999 -9999 -9999 -9999 -9999 -9999 -9999 -9999 -9999 -9999 -9999 -9999 -9999 -9999 -9999 -9999 -9999 -9999 -9999 -9999 -9999 -9999 -9999 -9999 -9999 -9999 -9999 -9999 -9999 -9999 -9999 -9999 -9999 -9999 -9999 -9999 -9999 -9999 -9999 -9999 -9999 -9999 -9999 -9999 -9999 -9999 -9999 -9999 4522 4467 4363 4362 4289 4150 4221 4468 4494 4494 4567 4490 4464 4432 4353 4215 4032 3894 3894 3908 4099 4269 4244 4244 4270 4446 4520 4523 4409 4409 4396 4154 4136 4154 4316 4160 4160 4160 4003 3994 3739 3534 3526 3714 3912 3800 3557 3372 3110 2795 2795 2669 2337 2438 2603 2603 2563 2563 2286 2121 1988 2362 2445 2526 2561 2596 2679 2929 2960 2926 3024 3097 3228 3234 3234 3322 3561 3592 3592 3806 3929 4118 4382 4574 4574 4884 4862 4687 4589 4506 4387 4298 4201 4201 4106 3957 3773 3662 3662 3948 4312 4524 4586 4593 4691 4755 4833 5056 5151 5111 5166 5229 5229 5518 5597 5570 5549 5507 5455 5471 5527 5438 5249 4987 4848 4848 4609 4454 4312 4098 4098 3986 3934 3863 3908 4023 4302 4414 4174 4174 4105 3880 3674 3577 3761 3761 3910 4234 4346 4346 4415 4502 4616 4616 4857 5068 -9999 -9999 -9999 -9999 -9999 -9999 -9999 -9999 -9999 -9999 -9999 -9999 -9999 -9999 -9999 -9999 -9999 -9999 -9999 -9999 -9999 -9999 -9999 -9999 -9999 -9999 -9999 -9999 -9999 -9999 -9999 -9999 -9999 -9999 -9999 -9999 -9999 -9999 -9999 -9999 -9999 -9999 -9999 -9999 -9999 -9999 -9999 -9999 -9999 -9999 -9999 -9999 -9999 -9999 -9999 -9999 -9999 -9999 -9999 -9999 -9999 -9999 -9999 -9999 -9999 -9999 -9999 -9999 -9999 -9999 -9999 -9999 -9999 -9999 -9999 -9999
-9999 -9999 -9999 -9999 -9999 -9999 -9999 -9999 -9999 -9999 -9999 -9999 -9999 -9999 -9999 -9999 -9999 -9999 -9999 -9999 -9999 -9999 -9999 -9999 -9999 -9999 -9999 -9999 -9999 -9999 -9999 -9999 -9999 -9999 -9999 -9999 -9999 -9999 -9999 -9999 -9999 -9999 -9999 -9999 -9999 -9999 -9999 -9999 -9999 -9999 -9999 -9999 -9999 -9999 -9999 -9999 -9999 -9999 -9999 -9999 -9999 -9999 4456 4456 4420 4401 4381 4344 4292 4138 4143 4331 4398 4398 4500 4559 4460 4374 4289 4157 4031 3866 3866 3864 4035 4193 4139 4139 4254 4392 4417 4543 4414 4414 4320 4132 4026 3992 4178 4195 4195 4195 4054 3939 3634 3464 3478 3673 3893 3946 3591 3356 3134 2850 2850 2706 2364 2226 2392 2392 2377 2377 2112 1961 2031 2389 2511 2732 2835 2840 2888 3096 3086 3085 3184 3291 3382 3428 3428 3493 3845 3711 3711 3861 4005 4139 4380 4573 4573 4856 4819 4644 4539 4462 4323 4220 4123 4123 3933 3848 3674 3736 3736 3974 4381 4595 4746 4707 4795 4861 4881 4976 5347 5367 5349 5418 5418 5614 5757 5603 5568 5438 5421 5429 5592 5504 5345 5005 4831 4831 4513 4307 4145 3948 3948 3846 3827 3776 3781 3911 4228 4294 4112 4112 3922 3735 3610 3544 3826 3826 3962 4144 4223 4223 4340 4602 4697 4697 4840 5005 -9999 -9999 -9999 -9999 -9999 -9999 -9999 -9999 -9999 -9999 -9999 -9999 -9999 -9999 -9999 -9999 -9999 -9999 -9999 -9999 -9999 -9999 -9999 -9999 -9999 -9999 -9999 -9999 -9999 -9999 -9999 -9999 -9999 -9999 -9999 -9999 -9999 -9999 -9999 -9999 -9999 -9999 -9999 -9999 -9999 -9999 -9999 -9999 -9999 -9999 -9999 -9999 -9999 -9999 -9999 -9999 -9999 -9999 -9999 -9999 -9999 -9999 -9999 -9999 -9999 -9999 -9999 -9999 -9999 -9999 -9999 -9999 -9999 -9999 -9999 -9999
-9999 -9999 -9999 -9999 -9999 -9999 -9999 -9999 -9999 -9999 -9999 -9999 -9999 -9999 -9999 -9999 -9999 -9999 -9999 -9999 -9999 -9999 -9999 -9999 -9999 -9999 -9999 -9999 -9999 -9999 -9999 -9999 -9999 -9999 -9999 -9999 -9999 -9999 -9999 -9999 -9999 -9999 -9999 -9999 -9999 -9999 -9999 -9999 -9999 -9999 -9999 -9999 -9999 -9999 -9999 -9999 -9999 -9999 -9999 -9999 -9999 -9999 4440 4440 4341 4368 4365 4338 4144 4037 4069 4361 4433 4433 4497 4495 4440 4276 4188 4058 4022 3847 3847 3831 3937 4076 4175 4175 4238 4446 4453 4443 4361 4361 4329 4187 3939 3866 4015 4075 4075 4075 3872 3862 3536 3405 3432 3650 3814 3806 3576 3354 3118 2930 2930 2822 2466 2294 2085 2085 2096 2096 1948 1992 2141 2465 2585 2831 3055 3084 3107 3302 3277 3313 3445 3557 3506 3644 3644 3647 3999 3891 3891 3927 4124 4263 4452 4597 4597 4954 4849 4670 4554 4460 4308 4184 4064 4064 3820 3691 3585 3789 3789 3953 4340 4543 4681 4831 4859 4926 4904 5001 5384 5482 5397 5473 5473 5592 5660 5668 5504 5417 5389 5385 5619 5732 5592 5042 4851 4851 4440 4279 4123 3943 3943 3803 3743 3713 3681 3810 4109 4181 4089 4089 3925 3598 3491 3582 3809 3809 3920 4194 4241 4241 4315 4614 4744 4744 4910 4930 -9999 -9999 -9999 -9999 -9999 -9999 -9999 -9999 -9999 -9999 -9999 -9999 -9999 -9999 -9999 -9999 -9999 -9999 -9999 -9999 -9999 -9999 -9999 -9999 -9999 -9999 -9999 -9999 -9999 -9999 -9999 -9999 -9999 -9999 -9999 -9999 -9999 -9999 -9999 -9999 -9999 -9999 -9999 -9999 -9999 -9999 -9999 -9999 -9999 -9999 -9999 -9999 -9999 -9999 -9999 -9999 -9999 -9999 -9999 -9999 -9999 -9999 -9999 -9999 -9999 -9999 -9999 -9999 -9999 -9999 -9999 -9999 -9999 -9999 -9999 -9999
-9999 -9999 -9999 -9999 -9999 -9999 -9999 -9999 -9999 -9999 -9999 -9999 -9999 -9999 -9999 -9999 -9999 -9999 -9999 -9999 -9999 -9999 -9999 -9999 -9999 -9999 -9999 -9999 -9999 -9999 -9999 -9999 -9999 -9999 -9999 -9999 -9999 -9999 -9999 -9999 -9999 -9999 -9999 -9999 -9999 -9999 -9999 -9999 -9999 -9999 -9999 -9999 -9999 -9999 -9999 -9999 -9999 -9999 -9999 -9999 -9999 4384 4333 4333 4259 4134 4180 4230 4011 3942 4060 4213 4279 4279 4356 4400 4355 4192 4180 4235 4047 3913 3913 3810 3859 3921 4038 4038 4193 4343 4284 4309 4453 4453 4433 4111 3951 3787 3752 3748 3748 3748 3567 3536 3443 3317 3270 3419 3496 3610 3617 3468 3356 3156 3156 2987 2736 2521 2302 2302 2210 2210 1892.25 2255 2436 2571 2713 2944 3207 3355 3364 3597 3629 3651 3802 3905 3995 3991 3991 3875 4250 4108 4108 4100 4202 4419 4798 4885 4885 5051 4911 4687 4599 4475 4318 4187 4069 4069 3832 3632 3540 3862 3862 4109 4449 4579 4688 4987 4999 5010 5103 5068 4943 4934 4995 5099 5099 5238 5368 5151 4992 5077 5200 5330 5433 5489 5565 5219 4990 4990 4595 4476 4429 4164 4164 3868 3659 3602 3591 3699 4027 4059 3828 3828 3704 3436 3484 3686 4024 4024 4124 4438 4446 4446 4483 4666 4748 4748 4980 5163 -9999 -9999 -9999 -9999 -9999 -9999 -9999 -9999 -9999 -9999 -9999 -9999 -9999 -9999 -9999 -9999 -9999 -9999 -9999 -9999 -9999 -9999 -9999 -9999 -9999 -9999 -9999 -9999 -9999 -9999 -9999 -9999 -9999 -9999 -9999 -9999 -9999 -9999 -9999 -9999 -9999 -9999 -9999 -9999 -9999 -9999 -9999 -9999 -9999 -9999 -9999 -9999 -9999 -9999 -9999 -9999 -9999 -9999 -9999 -9999 -9999 -9999 -9999 -9999 -9999 -9999 -9999 -9999 -9999 -9999 -9999 -9999 -9999 -9999 -9999 -9999
-9999 -9999 -9999 -9999 -9999 -9999 -9999 -9999 -9999 -9999 -9999 -9999 -9999 -9999 -9999 -9999 -9999 -9999 -9999 -9999 -9999 -9999 -9999 -9999 -9999 -9999 -9999 -9999 -9999 -9999 -9999 -9999 -9999 -9999 -9999 -9999 -9999 -9999 -9999 -9999 -9999 -9999 -9999 -9999 -9999 -9999 -9999 -9999 -9999 -9999 -9999 -9999 -9999 -9999 -9999 -9999 -9999 -9999 -9999 -9999 -9999 4410 4316 4316 4233 4153 4065 4035 3905 3958 4033 4298 4281 4281 4315 4332 4337 4236 4278 4238 4134 3994 3994 3888 3797 3790 4010 4010 4157 4179 4200 4279 4327 4327 4276 4088 4013 3848 3583 3564 3564 3564 3400 3327 3208 3150 3121 3235 3327 3458 3688 3626 3542 3331 3331 3109 2823 2628 2453 2453 2309 2309 1950 2293 2510 2749 2836 3040 3304 3487 3516 3770 3868 3905 4079 4085 4175 4139 4139 4125 4343 4255 4255 4202 4313 4461 4876 5166 5166 4906 4815 4534 4452 4426 4365 4251 4130 4130 3737 3582 3521 3927 3927 4158 4548 4670 4756 4967 4989 5088 5095 4860 4738 4788 4844 4958 4958 5199 5368 4799 4809 4880 4995 5258 5455 5495 5549 5414 5198 5198 4736 4563 4414 4112 4112 3862 3672 3567 3546 3608 3918 3983 3712 3712 3546 3351 3513 3723 4052 4052 4244 4535 4699 4699 4626 4773 4884 4884 5012 5112 -9999 -9999 -9999 -9999 -9999 -9999 -9999 -9999 -9999 -9999 -9999 -9999 -9999 -9999 -9999 -9999 -9999 -9999 -9999 -9999 -9999 -9999 -9999 -9999 -9999 -9999 -9999 -9999 -9999 -9999 -9999 -9999 -9999 -9999 -9999 -9999 -9999 -9999 -9999 -9999 -9999 -9999 -9999 -9999 -9999 -9999 -9999 -9999 -9999 -9999 -9999 -9999 -9999 -9999 -9999 -9999 -9999 -9999 -9999 -9999 -9999 -9999 -9999 -9999 -9999 -9999 -9999 -9999 -9999 -9999 -9999 -9999 -9999 -9999 -9999 -9999
-9999 -9999 -9999 -9999 -9999 -9999 -9999 -9999 -9999 -9999 -9999 -9999 -9999 -9999 -9999 -9999 -9999 -9999 -9999 -9999 -9999 -9999 -9999 -9999 -9999 -9999 -9999 -9999 -9999 -9999 -9999 -9999 -9999 -9999 -9999 -9999 -9999 -9999 -9999 -9999 -9999 -9999 -9999 -9999 -9999 -9999 -9999 -9999 -9999 -9999 -9999 -9999 -9999 -9999 -9999 -9999 -9999 -9999 -9999 -9999 -9999 4441 4347 4347 4301 4213 4098 4051 3874 3906 3950 4239 4237 4237 4244 4293 4375 4329 4364 4307 4201 4201 4012 3915 3755 3722 3946 3946 3985 4099 4224 4268 4248 4248 4157 4114 4094 3865 3653 3543 3543 3543 3432 3385 3321 3266 3188 3101 3190 3368 3668 3722 3646 3425 3425 3277 2880 2706 2452 2452 2163 2163 2029 2365 2598 2901 2971 3093 3261 3416 3506 3711 3811 3919 4025 4221 4344 4359 4359 4467 4508 4416 4416 4368 4486 4667 5076 5150 5150 4887 4776 4487 4395 4327 4219 4156 4058 4058 3703 3498 3501 3933 3933 4097 4594 4795 4825 4740 4868 4924 4868 4739 4579 4593 4696 4923 4923 5100 5161 4761 4781 4823 4940 5164 5439 5528 5642 5354 5143 5143 4758 4584 4422 4101 4101 3923 3816 3594 3514 3515 3829 3949 3664 3664 3427 3395 3538 3561 3887 3887 4060 4373 4408 4408 4509 4768 4924 4924 5266 -9999 -9999 -9999 -9999 -9999 -9999 -9999 -9999 -9999 -9999 -9999 -9999 -9999 -9999 -9999 -9999 -9999 -9999 -9999 -9999 -9999 -9999 -9999 -9999 -9999 -9999 -9999 -9999 -9999 -9999 -9999 -9999 -9999 -9999 -9999 -9999 -9999 -9999 -9999 -9999 -9999 -9999 -9999 -9999 -9999 -9999 -9999 -9999 -9999 -9999 -9999 -9999 -9999 -9999 -9999 -9999 -9999 -9999 -9999 -9999 -9999 -9999 -9999 -9999 -9999 -9999 -9999 -9999 -9999 -9999 -9999 -9999 -9999 -9999 -9999 -9999 -9999
-9999 -9999 -9999 -9999 -9999 -9999 -9999 -9999 -9999 -9999 -9999 -9999 -9999 -9999 -9999 -9999 -9999 -9999 -9999 -9999 -9999 -9999 -9999 -9999 -9999 -9999 -9999 -9999 -9999 -9999 -9999 -9999 -9999 -9999 -9999 -9999 -9999 -9999 -9999 -9999 -9999 -9999 -9999 -9999 -9999 -9999 -9999 -9999 -9999 -9999 -9999 -9999 -9999 -9999 -9999 -9999 -9999 -9999 -9999 -9999 4390 4339 4385 4385 4350 4236 4079 4009 3842 3834 3980 4141 4073 4073 4182 4274 4342 4322 4327 4246 4153 4153 4052 3956 3639 3674 3801 3801 3820 4060 4135 4296 4223 4223 4118 3961 4011 3973 3731 3656 3656 3656 3559 3528 3436 3385 3299 3148 3129 3358 3646 3540 3452 3288 3288 3196 2974 2774 2261 2261 1994 1994 2098 2484 2641 2777 2810 2936 3082 3235 3323 3578 3646 3745 3881 4094 4203 4254 4254 4341 4388 4496 4496 4635 4620 4813 4842 4930 4930 4792 4701 4425 4298 4208 4065 3976 3914 3914 3641 3419 3486 3950 3950 4196 4479 4562 4563 4532 4744 4728 4585 4547 4436 4469 4572 4572 4732 4867 4862 4704 4733 4908 4990 5113 5431 5478 5474 5122 4974 4974 4763 4628 4431 4180 4180 4058 3844 3671 3545 3420 3680 3781 3587 3587 3373 3471 3709 3731 3848 3848 3997 4187 4321 4321 4416 4765 4888 4888 5167 -9999 -9999 -9999 -9999 -9999 -9999 -9999 -9999 -9999 -9999 -9999 -9999 -9999 -9999 -9999 -9999 -9999 -9999 -9999 -9999 -9999 -9999 -9999 -9999 -9999 -9999 -9999 -9999 -9999 -9999 -9999 -9999 -9999 -9999 -9999 -9999 -9999 -9999 -9999 -9999 -9999 -9999 -9999 -9999 -9999 -9999 -9999 -9999 -9999 -9999 -9999 -9999 -9999 -9999 -9999 -9999 -9999 -9999 -9999 -9999 -9999 -9999 -9999 -9999 -9999 -9999 -9999 -9999 -9999 -9999 -9999 -9999 -9999 -9999 -9999 -9999 -9999
-9999 -9999 -9999 -9999 -9999 -9999 -9999 -9999 -9999 -9999 -9999 -9999 -9999 -9999 -9999 -9999 -9999 -9999 -9999 -9999 -9999 -9999 -9999 -9999 -9999 -9999 -9999 -9999 -9999 -9999 -9999 -9999 -9999 -9999 -9999 -9999 -9999 -9999 -9999 -9999 -9999 -9999 -9999 -9999 -9999 -9999 -9999 -9999 -9999 -9999 -9999 -9999 -9999 -9999 -9999 -9999 -9999 -9999 -9999 -9999 4398 4323 4294 4294 4317 4254 4165 4072 3801 3793 3883 3992 3965 3965 4211 4294 4331 4247 4258 4338 4203 4203 4113 3991 3682 3548 3653 3653 3717 4036 4153 4285 4071 4071 4046 3825 3861 3975 3839 3738 3738 3738 3659 3643 3554 3450 3286 3090 3062 3246 3507 3354 3231 3191 3191 3026 2855 2623 2241 2241 1961 1961 2111 2384 2446 2614 2687 2791 2950 3034 3110 3431 3521 3695 3775 3839 4004 4043 4043 4090 4256 4376 4376 4584 4727 4698 4642 4788 4788 4742 4693 4392 4253 4188 4061 3930 3813 3813 3618 3386 3455 3926 3926 4163 4219 4195 4215 4412 4565 4550 4415 4381 4353 4388 4425 4425 4503 4596 4580 4663 4833 4975 5045 5193 5258 5217 5165 4968 4815 4815 4570 4453 4342 4306 4306 4178 3982 3766 3644 3485 3413 3495 3490 3490 3253 3484 3724 3918 3981 3981 4073 4179 4328 4328 4427 4776 4917 4917 5250 -9999 -9999 -9999 -9999 -9999 -9999 -9999 -9999 -9999 -9999 -9999 -9999 -9999 -9999 -9999 -9999 -9999 -9999 -9999 -9999 -9999 -9999 -9999 -9999 -9999 -9999 -9999 -9999 -9999 -9999 -9999 -9999 -9999 -9999 -9999 -9999 -9999 -9999 -9999 -9999 -9999 -9999 -9999 -9999 -9999 -9999 -9999 -9999 -9999 -9999 -9999 -9999 -9999 -9999 -9999 -9999 -9999 -9999 -9999 -9999 -9999 -9999 -9999 -9999 -9999 -9999 -9999 -9999 -9999 -9999 -9999 -9999 -9999 -9999 -9999 -9999 -9999
-9999 -9999 -9999 -9999 -9999 -9999 -9999 -9999 -9999 -9999 -9999 -9999 -9999 -9999 -9999 -9999 -9999 -9999 -9999 -9999 -9999 -9999 -9999 -9999 -9999 -9999 -9999 -9999 -9999 -9999 -9999 -9999 -9999 -9999 -9999 -9999 -9999 -9999 -9999 -9999 -9999 -9999 -9999 -9999 -9999 -9999 -9999 -9999 -9999 -9999 -9999 -9999 -9999 -9999 -9999 -9999 -9999 -9999 4205 4163 4159 4101 4101 4084 4230 4295 4099 3976 3723 3647 3643 3814 3959 3959 4115 4235 4280 4124 4186 4165 4170 4170 4120 4030 3755 3536 3528 3528 3647 3882 3979 4106 3891 3891 3813 3721 3692 3818 3704 3722 3722 3722 3753 3757 3562 3330 3224 3140 2923 2978 3269 3070 2970 2924 2924 2954 2560 2477 2201 2201 1831 1831 1925 2001 2091 2345 2449 2618 2754 2819 2872 3160 3274 3394 3400 3497 3724 3684 3684 3826 4070 4204 4204 4572 4583 4473 4427 4571 4571 4677 4616 4343 4235 4175 4106 3986 3784 3784 3460 3366 3455 3738 3738 3754 3799 3794 3841 4040 4091 4117 4248 4295 4364 4380 4417 4417 4492 4609 4687 4824 4966 5189 5278 5106 4723 4691 4682 4734 4710 4710 4472 4265 4052 3892 3892 3970 4075 4046 3915 3679 3373 3254 3227 3227 3163 3500 3577 3736 4024 4024 4307 4417 4489 4489 4554 4813 4913 4913 -9999 -9999 -9999 -9999 -9999 -9999 -9999 -9999 -9999 -9999 -9999 -9999 -9999 -9999 -9999 -9999 -9999 -9999 -9999 -9999 -9999 -9999 -9999 -9999 -9999 -9999 -9999 -9999 -9999 -9999 -9999 -9999 -9999 -9999 -9999 -9999 -9999 -9999 -9999 -9999 -9999 -9999 -9999 -9999 -9999 -9999 -9999 -9999 -9999 -9999 -9999 -9999 -9999 -9999 -9999 -9999 -9999 -9999 -9999 -9999 -9999 -9999 -9999 -9999 -9999 -9999 -9999 -9999 -9999 -9999 -9999 -9999 -9999 -9999 -9999 -9999 -9999 -9999
-9999 -9999 -9999 -9999 -9999 -9999 -9999 -9999 -9999 -9999 -9999 -9999 -9999 -9999 -9999 -9999 -9999 -9999 -9999 -9999 -9999 -9999 -9999 -9999 -9999 -9999 -9999 -9999 -9999 -9999 -9999 -9999 -9999 -9999 -9999 -9999 -9999 -9999 -9999 -9999 -9999 -9999 -9999 -9999 -9999 -9999 -9999 -9999 -9999 -9999 -9999 -9999 -9999 -9999 -9999 4186 4266 4217 4140 4016 4003 3993 3993 4003 4134 4210 4087 3957 3651 3554 3581 3777 3919 3919 4142 4199 4241 4046 4103 4071 4094 4094 3970 3954 3745 3589 3446 3446 3599 3829 3896 3993 3888 3888 3803 3649 3596 3688 3532 3598 3598 3598 3641 3673 3511 3454 3386 3165 2945 2946 3185 3040 2878 2726 2726 2755 2673 2446 2119 2119 1792 1792 2026 2160 2168 2199 2241 2467 2621 2696 2772 3033 3090 3197 3207 3367 3513 3524 3524 3682 3947 4143 4143 4555 4613 4503 4292 4456 4456 4483 4484 4178 4078 4028 3925 3866 3702 3702 3416 3282 3458 3594 3594 3648 3714 3733 3736 3856 3915 3966 4131 4240 4296 4338 4443 4443 4566 4712 4773 4946 4963 5108 5111 4903 4458 4406 4402 4527 4617 4617 4382 4204 4017 3727 3727 3781 3890 3944 4012 3902 3615 3495 3104 3104 3156 3604 3779 3837 4087 4087 4224 4517 4581 4581 4666 4873 4974 4974 -9999 -9999 -9999 -9999 -9999 -9999 -9999 -9999 -9999 -9999 -9999 -9999 -9999 -9999 -9999 -9999 -9999 -9999 -9999 -9999 -9999 -9999 -9999 -9999 -9999 -9999 -9999 -9999 -9999 -9999 -9999 -9999 -9999 -9999 -9999 -9999 -9999 -9999 -9999 -9999 -9999 -9999 -9999 -9999 -9999 -9999 -9999 -9999 -9999 -9999 -9999 -9999 -9999 -9999 -9999 -9999 -9999 -9999 -9999 -9999 -9999 -9999 -9999 -9999 -9999 -9999 -9999 -9999 -9999 -9999 -9999 -9999 -9999 -9999 -9999 -9999 -9999 -9999
-9999 -9999 -9999 -9999 -9999 -9999 -9999 -9999 -9999 -9999 -9999 -9999 -9999 -9999 -9999 -9999 -9999 -9999 -9999 -9999 -9999 -9999 -9999 -9999 -9999 -9999 -9999 -9999 -9999 -9999 -9999 -9999 -9999 -9999 -9999 -9999 -9999 -9999 -9999 -9999 -9999 -9999 -9999 -9999 -9999 -9999 -9999 -9999 -9999 -9999 -9999 -9999 -9999 -9999 4178 4126 4114 4139 4167 4047 3927 3949 3949 3925 4068 4058 3987 3897 3650 3495 3541 3793 3915 3915 4065 4212 4153 3970 3971 3974 4019 4019 3900 3801 3666 3528 3375 3375 3491 3729 3762 3872 3880 3880 3773 3600 3524 3534 3483 3421 3421 3421 3525 3477 3555 3383 3263 3106 2962 2807 3063 2895 2737 2529 2529 2518 2534 2430 1959 1959 1745 1745 2152 2354 2466 2385 2343 2349 2422 2526 2609 2846 2890 3012 3065 3168 3330 3441 3441 3646 3996 4241 4241 4520 4507 4443 4214 4312 4312 4312 4423 4113 3983 3914 3800 3659 3551 3551 3321 3176 3388 3530 3530 3598 3680 3732 3747 3798 3848 3987 4135 4209 4340 4418 4616 4616 4788 4996 5033 5157 5199 4981 4827 4541 4217 4139 4102 4207 4257 4257 4321 4236 4050 3730 3730 3565 3514 3550 3622 3699 3455 3358 3036 3036 3111 3459 3682 3927 4237 4237 4338 4593 4723 4723 4826 5129 5127 -9999 -9999 -9999 -9999 -9999 -9999 -9999 -9999 -9999 -9999 -9999 -9999 -9999 -9999 -9999 -9999 -9999 -9999 -9999 -9999 -9999 -9999 -9999 -9999 -9999 -9999 -9999 -9999 -9999 -9999 -9999 -9999 -9999 -9999 -9999 -9999 -9999 -9999 -9999 -9999 -9999 -9999 -9999 -9999 -9999 -9999 -9999 -9999 -9999 -9999 -9999 -9999 -9999 -9999 -9999 -9999 -9999 -9999 -9999 -9999 -9999 -9999 -9999 -9999 -9999 -9999 -9999 -9999 -9999 -9999 -9999 -9999 -9999 -9999 -9999 -9999 -9999 -9999 -9999
-9999 -9999 -9999 -9999 -9999 -9999 -9999 -9999 -9999 -9999 -9999 -9999 -9999 -9999 -9999 -9999 -9999 -9999 -9999 -9999 -9999 -9999 -9999 -9999 -9999 -9999 -9999 -9999 -9999 -9999 -9999 -9999 -9999 -9999 -9999 -9999 -9999 -9999 -9999 -9999 -9999 -9999 -9999 -9999 -9999 -9999 -9999 -9999 -9999 -9999 -9999 -9999 -9999 4301 4246 4201 4004 4048 4103 3988 3926 3910 3910 3870 3990 3970 3885 3861 3611 3461 3498 3739 3799 3799 4011 4197 4196 3950 3908 3908 3969 3969 3910 3813 3609 3547 3332 3332 3436 3639 3714 3828 3834 3834 3734 3632 3553 3468 3395 3343 3343 3343 3425 3404 3485 3428 3334 3201 3051 2884 2894 2855 2653 2385 2385 2354 2396 2385 1962 1962 1735 1735 2123 2339 2613 2533 2459 2462 2531 2588 2606 2781 2841 2908 3166 3221 3362 3392 3392 3493 3849 4058 4058 4428 4400 4270 4062 4080 4080 4177 4255 4111 4108 4046 3944 3751 3584 3584 3177 3126 3373 3682 3682 3757 3878 3919 3905 4060 4106 4149 4242 4356 4576 4611 4706 4706 4872 5080 5167 5149 4901 4697 4577 4418 4111 4022 3914 4023 4083 4083 4081 4175 4117 3925 3925 3665 3518 3366 3344 3426 3245 3104 3011 3011 3236 3595 3763 3919 4293 4293 4444 4696 4805 4805 4861 5206 -9999 -9999 -9999 -9999 -9999 -9999 -9999 -9999 -9999 -9999 -9999 -9999 -9999 -9999 -9999 -9999 -9999 -9999 -9999 -9999 -9999 -9999 -9999 -9999 -9999 -9999 -9999 -9999 -9999 -9999 -9999 -9999 -9999 -9999 -9999 -9999 -9999 -9999 -9999 -9999 -9999 -9999 -9999 -9999 -9999 -9999 -9999 -9999 -9999 -9999 -9999 -9999 -9999 -9999 -9999 -9999 -9999 -9999 -9999 -9999 -9999 -9999 -9999 -9999 -9999 -9999 -9999 -9999 -9999 -9999 -9999 -9999 -9999 -9999 -9999 -9999 -9999 -9999 -9999 -9999
-9999 -9999 -9999 -9999 -9999 -9999 -9999 -9999 -9999 -9999 -9999 -9999 -9999 -9999 -9999 -9999 -9999 -9999 -9999 -9999 -9999 -9999 -9999 -9999 -9999 -9999 -9999 -9999 -9999 -9999 -9999 -9999 -9999 -9999 -9999 -9999 -9999 -9999 -9999 -9999 -9999 -9999 -9999 -9999 -9999 -9999 -9999 -9999 -9999 -9999 -9999 -9999 -9999 4379 4326 4247 3962 3900 3969 3939 3856 3834 3834 3799 3909 3842 3776 3742 3556 3424 3478 3611 3768 3768 3976 4064 4188 4008 3934 3844 3898 3898 3860 3762 3491 3378 3358 3358 3598 3685 3796 3903 3848 3848 3784 3588 3516 3575 3505 3384 3384 3384 3285 3288 3341 3330 3027 3116 3064 2997 2789 2646 2717 2640 2640 2500 2098 2141 1709.25 1709.25 1951 1951 2282 2522 2725 2949 3032 3124 3128 3103 3202 3180 3191 3210 3323 3558 3684 3681 3681 3758 3908 4031 4031 4329 4522 4391 4252 4077 4077 3987 4061 3758 3714 3691 3752 3591 3591 3425 3037 3059 3261 3588 3588 3777 4155 4266 4260 4325 4474 4518 4490 4557 4713 4798 4964 4964 5155 5290 5275 4883 4665 4415 4337 4216 3883 3782 3652 3530 3601 3601 3694 3753 3868 3999 3999 3949 3724 3561 3412 3156 2908 2923 3452 3452 3670 3697 3830 3959 4201 4201 4428 4759 4961 4961 -9999 -9999 -9999 -9999 -9999 -9999 -9999 -9999 -9999 -9999 -9999 -9999 -9999 -9999 -9999 -9999 -9999 -9999 -9999 -9999 -9999 -9999 -9999 -9999 -9999 -9999 -9999 -9999 -9999 -9999 -9999 -9999 -9999 -9999 -9999 -9999 -9999 -9999 -9999 -9999 -9999 -9999 -9999 -9999 -9999 -9999 -9999 -9999 -9999 -9999 -9999 -9999 -9999 -9999 -9999 -9999 -9999 -9999 -9999 -9999 -9999 -9999 -9999 -9999 -9999 -9999 -9999 -9999 -9999 -9999 -9999 -9999 -9999 -9999 -9999 -9999 -9999 -9999 -9999 -9999 -9999 -9999
-9999 -9999 -9999 -9999 -9999 -9999 -9999 -9999 -9999 -9999 -9999 -9999 -9999 -9999 -9999 -9999 -9999 -9999 -9999 -9999 -9999 -9999 -9999 -9999 -9999 -9999 -9999 -9999 -9999 -9999 -9999 -9999 -9999 -9999 -9999 -9999 -9999 -9999 -9999 -9999 -9999 -9999 -9999 -9999 -9999 -9999 -9999 -9999 -9999 -9999 -9999 -9999 4425 4316 4196 4118 3984 3844 3828 3816 3719 3613 3613 3682 3725 3685 3587 3535 3336 3343 3429 3592 3653 3653 3824 3984 4151 3960 3898 3769 3770 3770 3734 3646 3528 3360 3137 3137 3351 3640 3771 3706 3318 3318 3097 2978 3066 3174 3314 3500 3500 3500 3515 3481 3235 3174 3034 2954 2917 2803 2735 2854 2823 2539 2539 2338 1993 2013 1709.25 1709.25 1965 1965 2412 2581 2669 2810 2876 2947 3092 3277 3321 3349 3373 3377 3482 3600 3848 3824 3824 3857 4032 4134 4134 4350 4351 4263 4107 3982 3982 3849 3852 3548 3454 3485 3551 3523 3523 3332 2955 3115 3266 3557 3557 3699 4129 4358 4475 4473 4609 4672 4724 4691 4840 4933 4938 4938 4993 5066 5059 4613 4478 4248 4072 3907 3727 3678 3520 3275 3299 3299 3435 3494 3599 3763 3763 3859 3784 3596 3470 3298 2872 2955 3463 3463 3702 4028 4052 4102 4230 4230 4381 4792 4888 4888 -9999 -9999 -9999 -9999 -9999 -9999 -9999 -9999 -9999 -9999 -9999 -9999 -9999 -9999 -9999 -9999 -9999 -9999 -9999 -9999 -9999 -9999 -9999 -9999 -9999 -9999 -9999 -9999 -9999 -9999 -9999 -9999 -9999 -9999 -9999 -9999 -9999 -9999 -9999 -9999 -9999 -9999 -9999 -9999 -9999 -9999 -9999 -9999 -9999 -9999 -9999 -9999 -9999 -9999 -9999 -9999 -9999 -9999 -9999 -9999 -9999 -9999 -9999 -9999 -9999 -9999 -9999 -9999 -9999 -9999 -9999 -9999 -9999 -9999 -9999 -9999 -9999 -9999 -9999 -9999 -9999 -9999
-9999 -9999 -9999 -9999 -9999 -9999 -9999 -9999 -9999 -9999 -9999 -9999 -9999 -9999 -9999 -9999 -9999 -9999 -9999 -9999 -9999 -9999 -9999 -9999 -9999 -9999 -9999 -9999 -9999 -9999 -9999 -9999 -9999 -9999 -9999 -9999 -9999 -9999 -9999 -9999 -9999 -9999 -9999 -9999 -9999 -9999 -9999 -9999 -9999 -9999 -9999 -9999 4361 4262 4144 4065 3884 3860 3792 3718 3647 3535 3535 3608 3579 3544 3522 3466 3256 3373 3460 3657 3774 3774 3948 3994 4099 3938 3885 3910 3873 3873 3769 3666 3419 3243 3150 3150 3380 3640 3739 3618 3247 3247 3085 2869 2983 3071 3278 3448 3448 3448 3517 3454 3284 3219 3097 3037 2901 2902 2841 2954 2781 2394 2394 2191 1916 1995 1709.25 1709.25 1955 1955 2331 2528 2570 2707 2770 2916 3077 3192 3262 3480 3471 3486 3572 3610 3951 3922 3922 3940 4071 4199 4199 4428 4330 4209 4016 3928 3928 3751 3735 3452 3319 3334 3388 3477 3477 3272 2925 3151 3353 3640 3640 3771 4159 4361 4531 4563 4723 4797 4854 4778 4869 4809 4791 4791 4877 4964 4937 4440 4289 4073 3910 3788 3548 3522 3381 3183 3149 3149 3247 3307 3421 3609 3609 3695 3703 3592 3492 3290 2861 2937 3367 3367 3613 4000 4159 4255 4303 4303 4413 4786 4917 4917 -9999 -9999 -9999 -9999 -9999 -9999 -9999 -9999 -9999 -9999 -9999 -9999 -9999 -9999 -9999 -9999 -9999 -9999 -9999 -9999 -9999 -9999 -9999 -9999 -9999 -9999 -9999 -9999 -9999 -9999 -9999 -9999 -9999 -9999 -9999 -9999 -9999 -9999 -9999 -9999 -9999 -9999 -9999 -9999 -9999 -9999 -9999 -9999 -9999 -9999 -9999 -9999 -9999 -9999 -9999 -9999 -9999 -9999 -9999 -9999 -9999 -9999 -9999 -9999 -9999 -9999 -9999 -9999 -9999 -9999 -9999 -9999 -9999 -9999 -9999 -9999 -9999 -9999 -9999 -9999 -9999 -9999
-9999 -9999 -9999 -9999 -9999 -9999 -9999 -9999 -9999 -9999 -9999 -9999 -9999 -9999 -9999 -9999 -9999 -9999 -9999 -9999 -9999 -9999 -9999 -9999 -9999 -9999 -9999 -9999 -9999 -9999 -9999 -9999 -9999 -9999 -9999 -9999 -9999 -9999 -9999 -9999 -9999 -9999 -9999 -9999 -9999 -9999 -9999 -9999 -9999 -9999 -9999 4220 4026 4003 3934 3851 3663 3785 3828 3698 3567 3431 3431 3511 3394 3412 3360 3346 3281 3374 3411 3563 3710 3710 3969 4034 4148 3983 3979 3865 3798 3798 3642 3536 3327 3182 3195 3195 3361 3604 3620 3506 3371 3371 3205 2788 2795 2942 3191 3318 3318 3318 3491 3463 3390 3258 3218 3105 3034 3010 2999 3089 2808 2471 2471 2299 1959 2012 1709.25 1709.25 2038 2038 2246 2387 2397 2538 2647 2807 2943 3048 3087 3454 3617 3662 3735 3802 4042 4042 4059 4050 4269 4323 4323 4372 4242 3990 3942 3968 3968 3693 3605 3429 3293 3150 3144 3308 3308 3195 2960 3246 3467 3753 3753 3935 4224 4332 4422 4706 4793 4895 4941 4808 4638 4674 4756 4756 4862 4873 4875 4430 4244 4107 4109 3924 3638 3535 3424 3285 3198 3198 2995 3063 3204 3292 3292 3544 3523 3336 3269 3151 2864 3026 3359 3359 3523 3864 4118 4375 4453 4453 4551 4824 -9999 -9999 -9999 -9999 -9999 -9999 -9999 -9999 -9999 -9999 -9999 -9999 -9999 -9999 -9999 -9999 -9999 -9999 -9999 -9999 -9999 -9999 -9999 -9999 -9999 -9999 -9999 -9999 -9999 -9999 -9999 -9999 -9999 -9999 -9999 -9999 -9999 -9999 -9999 -9999 -9999 -9999 -9999 -9999 -9999 -9999 -9999 -9999 -9999 -9999 -9999 -9999 -9999 -9999 -9999 -9999 -9999 -9999 -9999 -9999 -9999 -9999 -9999 -9999 -9999 -9999 -9999 -9999 -9999 -9999 -9999 -9999 -9999 -9999 -9999 -9999 -9999 -9999 -9999 -9999 -9999 -9999 -9999 -9999
-9999 -9999 -9999 -9999 -9999 -9999 -9999 -9999 -9999 -9999 -9999 -9999 -9999 -9999 -9999 -9999 -9999 -9999 -9999 -9999 -9999 -9999 -9999 -9999 -9999 -9999 -9999 -9999 -9999 -9999 -9999 -9999 -9999 -9999 -9999 -9999 -9999 -9999 -9999 -9999 -9999 -9999 -9999 -9999 -9999 -9999 -9999 -9999 -9999 -9999 4112 4035 3870 3790 3861 3782 3542 3746 3821 3717 3622 3432 3432 3538 3430 3285 3260 3204 3286 3435 3574 3525 3632 3632 3815 3974 4114 3995 3923 3774 3638 3638 3558 3480 3220 3150 3189 3189 3354 3569 3585 3362 3232 3232 3185 2807 2637 2792 3019 3210 3210 3210 3296 3252 3146 3094 3033 3051 3090 3133 3154 3084 2803 2586 2586 2409 1954 1815 1738 1738 1889 1889 2110 2224 2267 2436 2524 2620 2760 2878 3002 3316 3460 3511 3564 3748 3872 3872 3928 4006 4314 4423 4423 4079 3950 3741 3683 3737 3737 3750 3614 3433 3257 3192 2982 3051 3051 3003 3052 3341 3582 3826 3826 3955 4121 4253 4395 4575 4708 4753 4662 4558 4638 4712 4751 4751 4866 4948 5000 4618 4478 4301 4202 4071 3792 3702 3617 3477 3369 3369 3129 2881 2945 3162 3162 3334 3348 3167 3041 2838 2968 3122 3541 3541 3761 3969 4183 4365 4578 4578 4668 -9999 -9999 -9999 -9999 -9999 -9999 -9999 -9999 -9999 -9999 -9999 -9999 -9999 -9999 -9999 -9999 -9999 -9999 -9999 -9999 -9999 -9999 -9999 -9999 -9999 -9999 -9999 -9999 -9999 -9999 -9999 -9999 -9999 -9999 -9999 -9999 -9999 -9999 -9999 -9999 -9999 -9999 -9999 -9999 -9999 -9999 -9999 -9999 -9999 -9999 -9999 -9999 -9999 -9999 -9999 -9999 -9999 -9999 -9999 -9999 -9999 -9999 -9999 -9999 -9999 -9999 -9999 -9999 -9999 -9999 -9999 -9999 -9999 -9999 -9999 -9999 -9999 -9999 -9999 -9999 -9999 -9999 -9999 -9999 -9999
-9999 -9999 -9999 -9999 -9999 -9999 -9999 -9999 -9999 -9999 -9999 -9999 -9999 -9999 -9999 -9999 -9999 -9999 -9999 -9999 -9999 -9999 -9999 -9999 -9999 -9999 -9999 -9999 -9999 -9999 -9999 -9999 -9999 -9999 -9999 -9999 -9999 -9999 -9999 -9999 -9999 -9999 -9999 -9999 -9999 -9999 -9999 -9999 -9999 -9999 3964 3838 3785 3628 3540 3528 3439 3571 3603 3482 3363 3259 3259 3480 3424 3288 3140 3138 3333 3477 3660 3806 3783 3783 3951 4006 4064 3918 3812 3717 3605 3605 3448 3367 3262 3060 3147 3147 3290 3468 3451 3259 2965 2965 2951 2764 2597 2493 2766 2948 2948 2948 2989 2967 2746 2679 2668 2656 2758 2863 3051 2879 2842 2589 2589 2421 1967 1780 1780 1809 1949 1949 2017 2069 2097 2300 2408 2568 2711 2827 2894 3088 3173 3218 3416 3572 3600 3600 3669 3812 4140 4186 4186 3834 3604 3408 3285 3289 3289 3404 3378 3062 2934 2835 2657 2759 2759 2904 2993 3153 3331 3633 3633 3848 4134 4123 4156 4399 4493 4433 4305 4292 4640 4763 4872 4872 4919 5006 4774 4460 4313 4157 4117 4042 3909 3860 3815 3691 3578 3578 3387 3040 2819 2860 2860 2961 3007 2874 2771 2655 3062 3230 3690 3690 3925 4189 4297 4393 4582 4582 -9999 -9999 -9999 -9999 -9999 -9999 -9999 -9999 -9999 -9999 -9999 -9999 -9999 -9999 -9999 -9999 -9999 -9999 -9999 -9999 -9999 -9999 -9999 -9999 -9999 -9999 -9999 -9999 -9999 -9999 -9999 -9999 -9999 -9999 -9999 -9999 -9999 -9999 -9999 -9999 -9999 -9999 -9999 -9999 -9999 -9999 -9999 -9999 -9999 -9999 -9999 -9999 -9999 -9999 -9999 -9999 -9999 -9999 -9999 -9999 -9999 -9999 -9999 -9999 -9999 -9999 -9999 -9999 -9999 -9999 -9999 -9999 -9999 -9999 -9999 -9999 -9999 -9999 -9999 -9999 -9999 -9999 -9999 -9999 -9999 -9999
-9999 -9999 -9999 -9999 -9999 -9999 -9999 -9999 -9999 -9999 -9999 -9999 -9999 -9999 -9999 -9999 -9999 -9999 -9999 -9999 -9999 -9999 -9999 -9999 -9999 -9999 -9999 -9999 -9999 -9999 -9999 -9999 -9999 -9999 -9999 -9999 -9999 -9999 -9999 -9999 -9999 -9999 -9999 -9999 -9999 -9999 -9999 -9999 -9999 -9999 4010 3741 3633 3619 3489 3443 3332 3371 3411 3420 3247 3226 3226 3502 3365 3202 3101 3210 3303 3502 3570 3679 3762 3762 3937 4039 4079 3881 3830 3726 3645 3645 3455 3351 3133 3026 3044 3044 3179 3406 3357 3276 3001 3001 2792 2706 2530 2464 2718 2875 2875 2875 2858 2761 2511 2524 2477 2496 2662 2812 2882 2716 2631 2527 2527 2286 1934 1740 1740 1698 1842 1842 2090 2156 2200 2350 2423 2513 2646 2783 2744 2948 3070 3289 3341 3415 3544 3544 3664 3844 4156 4100 4100 3883 3634 3496 3049 3090 3090 3198 3127 2897 2733 2609 2723 2983 2983 3081 3133 3095 3168 3480 3480 3659 3828 3968 4026 4338 4426 4345 4248 4297 4614 4712 4948 4948 4927 4853 4677 4272 4106 3926 3857 3829 3703 3630 3590 3550 3581 3581 3397 3151 2911 2644 2644 2794 2752 2581 2588 2763 3046 3215 3644 3644 3818 4027 4138 4285 4534 -9999 -9999 -9999 -9999 -9999 -9999 -9999 -9999 -9999 -9999 -9999 -9999 -9999 -9999 -9999 -9999 -9999 -9999 -9999 -9999 -9999 -9999 -9999 -9999 -9999 -9999 -9999 -9999 -9999 -9999 -9999 -9999 -9999 -9999 -9999 -9999 -9999 -9999 -9999 -9999 -9999 -9999 -9999 -9999 -9999 -9999 -9999 -9999 -9999 -9999 -9999 -9999 -9999 -9999 -9999 -9999 -9999 -9999 -9999 -9999 -9999 -9999 -9999 -9999 -9999 -9999 -9999 -9999 -9999 -9999 -9999 -9999 -9999 -9999 -9999 -9999 -9999 -9999 -9999 -9999 -9999 -9999 -9999 -9999 -9999 -9999 -9999
-9999 -9999 -9999 -9999 -9999 -9999 -9999 -9999 -9999 -9999 -9999 -9999 -9999 -9999 -9999 -9999 -9999 -9999 -9999 -9999 -9999 -9999 -9999 -9999 -9999 -9999 -9999 -9999 -9999 -9999 -9999 -9999 -9999 -9999 -9999 -9999 -9999 -9999 -9999 -9999 -9999 -9999 -9999 -9999 -9999 -9999 -9999 -9999 -9999 4074 3959 3826 3667 3521 3454 3460 3374 3256 3238 3240 3197 3159 3159 3383 3293 3134 3085 3196 3399 3407 3409 3527 3632 3632 3863 3920 3958 3851 3814 3759 3568 3568 3443 3365 3178 3134 2943 2943 3101 3318 3232 3079 2886 2886 2821 2622 2475 2428 2713 2713 2741 2741 2759 2662 2367 2369 2371 2415 2503 2609 2765 2558 2407 2332 2332 2138 1782 1590 1590 1692 1717 1717 2022 2178 2283 2372 2437 2553 2628 2600 2639 2910 2984 3105 3215 3288 3540 3540 3672 3859 4128 4107 4107 3847 3708 3469 3012 2837 2837 2873 2850 2667 2514 2584 2847 3064 3064 3233 3339 3273 3245 3312 3312 3414 3732 3960 4087 4144 4233 4216 4232 4413 4638 4689 4739 4739 4783 4679 4493 4087 3959 3767 3702 3674 3541 3500 3447 3410 3377 3377 3363 3146 3025 2660 2660 2578 2554 2647 2803 3010 3084 3196 3506 3506 3618 3873 4015 4181 4434 -9999 -9999 -9999 -9999 -9999 -9999 -9999 -9999 -9999 -9999 -9999 -9999 -9999 -9999 -9999 -9999 -9999 -9999 -9999 -9999 -9999 -9999 -9999 -9999 -9999 -9999 -9999 -9999 -9999 -9999 -9999 -9999 -9999 -9999 -9999 -9999 -9999 -9999 -9999 -9999 -9999 -9999 -9999 -9999 -9999 -9999 -9999 -9999 -9999 -9999 -9999 -9999 -9999 -9999 -9999 -9999 -9999 -9999 -9999 -9999 -9999 -9999 -9999 -9999 -9999 -9999 -9999 -9999 -9999 -9999 -9999 -9999 -9999 -9999 -9999 -9999 -9999 -9999 -9999 -9999 -9999 -9999 -9999 -9999 -9999 -9999 -9999
-9999 -9999 -9999 -9999 -9999 -9999 -9999 -9999 -9999 -9999 -9999 -9999 -9999 -9999 -9999 -9999 -9999 -9999 -9999 -9999 -9999 -9999 -9999 -9999 -9999 -9999 -9999 -9999 -9999 -9999 -9999 -9999 -9999 -9999 -9999 -9999 -9999 -9999 -9999 -9999 -9999 -9999 -9999 -9999 -9999 -9999 -9999 -9999 -9999 -9999 3992 3841 3703 3598 3542 3601 3383 3265 3238 3173 3130 3102 3102 3197 3122 3037 3092 3192 3377 3283 3269 3424 3550 3550 3847 3798 3877 3820 3782 3716 3716 3582 3472 3393 3291 3119 2893 2893 3063 3183 3226 3107 2719 2719 2548 2375 2294 2361 2495 2495 2498 2498 2757 2710 2371 2178 2261 2300 2354 2498 2599 2432 2318 2099 2099 2048 1641 1600 1600 1798 1764 1764 1978 2137 2224 2285 2359 2409 2416 2496 2573 2696 2786 2969 3086 3183 3522 3522 3629 3673 3964 3890 3890 3760 3557 3286 3106 2963 2963 2659 2615 2445 2565 2716 2824 2950 2950 3151 3544 3498 3438 3429 3429 3452 3630 3812 3928 3954 4120 4214 4307 4359 4567 4584 4621 4621 4581 4434 4275 3897 3781 3725 3602 3528 3421 3388 3343 3318 3217 3217 3217 3216 3003 2780 2780 2564 2584 2783 2946 3145 3425 3341 3458 3458 3625 3837 3997 4158 4379 -9999 -9999 -9999 -9999 -9999 -9999 -9999 -9999 -9999 -9999 -9999 -9999 -9999 -9999 -9999 -9999 -9999 -9999 -9999 -9999 -9999 -9999 -9999 -9999 -9999 -9999 -9999 -9999 -9999 -9999 -9999 -9999 -9999 -9999 -9999 -9999 -9999 -9999 -9999 -9999 -9999 -9999 -9999 -9999 -9999 -9999 -9999 -9999 -9999 -9999 -9999 -9999 -9999 -9999 -9999 -9999 -9999 -9999 -9999 -9999 -9999 -9999 -9999 -9999 -9999 -9999 -9999 -9999 -9999 -9999 -9999 -9999 -9999 -9999 -9999 -9999 -9999 -9999 -9999 -9999 -9999 -9999 -9999 -9999 -9999 -9999 -9999
-9999 -9999 -9999 -9999 -9999 -9999 -9999 -9999 -9999 -9999 -9999 -9999 -9999 -9999 -9999 -9999 -9999 -9999 -9999 -9999 -9999 -9999 -9999 -9999 -9999 -9999 -9999 -9999 -9999 -9999 -9999 -9999 -9999 -9999 -9999 -9999 -9999 -9999 -9999 -9999 -9999 -9999 -9999 -9999 -9999 -9999 -9999 -9999 -9999 -9999 4032 3865 3761 3729 3672 3643 3348 3345 3259 3257 3162 3162 3105 3037 3043 3057 3193 3247 3237 3194 3173 3375 3529 3529 3757 3681 3810 3651 3621 3639 3639 3625 3570 3532 3304 3145 2877 2877 2945 3134 3208 3055 2705 2705 2526 2460 2311 2191 2289 2289 2377 2377 2649 2671 2320 2142 2140 2174 2289 2407 2502 2275 2146 1882 1882 1889 1549 1767 1767 1920 1942 1942 1899 2019 2058 2119 2113 2226 2238 2327 2336 2459 2630 2821 2948 3148 3480 3480 3524 3672 3770 3688 3688 3589 3542 3404 3232 3124 3124 2833 2705 2559 2787 2926 2977 3055 3055 3148 3556 3697 3644 3587 3587 3668 3696 3682 3732 3890 4128 4257 4295 4332 4445 4524 4581 4581 4444 4282 4113 3725 3646 3523 3489 3379 3352 3306 3243 3150 3051 3051 3011 3082 2924 2619 2619 2506 2659 2911 3079 3235 3588 3539 3680 3680 3844 3954 4048 4178 4347 -9999 -9999 -9999 -9999 -9999 -9999 -9999 -9999 -9999 -9999 -9999 -9999 -9999 -9999 -9999 -9999 -9999 -9999 -9999 -9999 -9999 -9999 -9999 -9999 -9999 -9999 -9999 -9999 -9999 -9999 -9999 -9999 -9999 -9999 -9999 -9999 -9999 -9999 -9999 -9999 -9999 -9999 -9999 -9999 -9999 -9999 -9999 -9999 -9999 -9999 -9999 -9999 -9999 -9999 -9999 -9999 -9999 -9999 -9999 -9999 -9999 -9999 -9999 -9999 -9999 -9999 -9999 -9999 -9999 -9999 -9999 -9999 -9999 -9999 -9999 -9999 -9999 -9999 -9999 -9999 -9999 -9999 -9999 -9999 -9999 -9999 -9999
-9999 -9999 -9999 -9999 -9999 -9999 -9999 -9999 -9999 -9999 -9999 -9999 -9999 -9999 -9999 -9999 -9999 -9999 -9999 -9999 -9999 -9999 -9999 -9999 -9999 -9999 -9999 -9999 -9999 -9999 -9999 -9999 -9999 -9999 -9999 -9999 -9999 -9999 -9999 -9999 -9999 -9999 -9999 -9999 -9999 -9999 -9999 -9999 -9999 -9999 -9999 3973 3992 3819 3667 3626 3545 3437 3387 3437 3339 3339 3272 3150 2977 2947 2914 2981 3033 3169 3297 3398 3521 3521 3633 3519 3664 3508 3384 3311 3311 3304 3289 3325 3311 3179 3000 3000 2874 2999 3080 3082 2759 2759 2646 2450 2354 2176 2210 2210 2306 2306 2448 2384 2317 2176 2086 2048 2201 2304 2366 2194 2034 1877 1877 1717 1636 1712 1712 1986 2024 2024 1926 1948 1976 2021 2013 2038 2062 2167 2197 2411 2560 2744 2846 2991 3301 3301 3446 3648 3384 3324 3324 3243 3228 3287 3253 3169 3169 2719 2509 2623 2888 3071 3264 3360 3360 3341 3536 3783 3848 3897 3897 3943 4035 3973 3956 3986 4155 4243 4391 4408 4530 4470 4318 4318 4206 4162 4107 3747 3576 3419 3323 3203 3087 3076 3090 2906 2900 2900 2648 2641 2629 2463 2463 2675 2834 2995 3130 3296 3604 3707 3944 3944 4094 4075 4247 4311 4277 -9999 -9999 -9999 -9999 -9999 -9999 -9999 -9999 -9999 -9999 -9999 -9999 -9999 -9999 -9999 -9999 -9999 -9999 -9999 -9999 -9999 -9999 -9999 -9999 -9999 -9999 -9999 -9999 -9999 -9999 -9999 -9999 -9999 -9999 -9999 -9999 -9999 -9999 -9999 -9999 -9999 -9999 -9999 -9999 -9999 -9999 -9999 -9999 -9999 -9999 -9999 -9999 -9999 -9999 -9999 -9999 -9999 -9999 -9999 -9999 -9999 -9999 -9999 -9999 -9999 -9999 -9999 -9999 -9999 -9999 -9999 -9999 -9999 -9999 -9999 -9999 -9999 -9999 -9999 -9999 -9999 -9999 -9999 -9999 -9999 -9999 -9999
-9999 -9999 -9999 -9999 -9999 -9999 -9999 -9999 -9999 -9999 -9999 -9999 -9999 -9999 -9999 -9999 -9999 -9999 -9999 -9999 -9999 -9999 -9999 -9999 -9999 -9999 -9999 -9999 -9999 -9999 -9999 -9999 -9999 -9999 -9999 -9999 -9999 -9999 -9999 -9999 -9999 -9999 -9999 -9999 -9999 -9999 -9999 -9999 -9999 -9999 -9999 -9999 -9999 3848 3794 3794 3635 3562 3540 3541 3428 3428 3344 3114 3050 2980 2918 2877 3035 3151 3243 3423 3493 3493 3529 3438 3524 3402 3290 3103 3103 3131 3143 3208 3187 3083 2968 2968 2824 2985 3064 3116 2809 2809 2700 2480 2373 2202 2181 2181 2309 2309 2277 2206 2133 2103 1946 1846 1969 2107 2231 2051 1917 1674 1674 1557 1697 1786 1786 1942 2072 2072 2049 2057 2077 2093 2132 2158 2183 2145 2285 2429 2518 2599 2751 2847 3139 3139 3286 3493 3349 3170 3170 2957 2999 3092 3195 3086 3086 2588 2424 2638 2897 2981 3153 3347 3347 3509 3649 3749 3883 3949 3949 3872 3881 4012 4041 3970 4047 4126 4292 4449 4344 4283 4213 4213 4133 4019 3990 3753 3615 3508 3419 3261 2991 2905 2909 2757 2696 2696 2630 2537 2458 2462 2462 2555 2676 2828 2949 3136 3467 3641 3939 3939 4102 4229 4255 4258 -9999 -9999 -9999 -9999 -9999 -9999 -9999 -9999 -9999 -9999 -9999 -9999 -9999 -9999 -9999 -9999 -9999 -9999 -9999 -9999 -9999 -9999 -9999 -9999 -9999 -9999 -9999 -9999 -9999 -9999 -9999 -9999 -9999 -9999 -9999 -9999 -9999 -9999 -9999 -9999 -9999 -9999 -9999 -9999 -9999 -9999 -9999 -9999 -9999 -9999 -9999 -9999 -9999 -9999 -9999 -9999 -9999 -9999 -9999 -9999 -9999 -9999 -9999 -9999 -9999 -9999 -9999 -9999 -9999 -9999 -9999 -9999 -9999 -9999 -9999 -9999 -9999 -9999 -9999 -9999 -9999 -9999 -9999 -9999 -9999 -9999 -9999 -9999
-9999 -9999 -9999 -9999 -9999 -9999 -9999 -9999 -9999 -9999 -9999 -9999 -9999 -9999 -9999 -9999 -9999 -9999 -9999 -9999 -9999 -9999 -9999 -9999 -9999 -9999 -9999 -9999 -9999 -9999 -9999 -9999 -9999 -9999 -9999 -9999 -9999 -9999 -9999 -9999 -9999 -9999 -9999 -9999 -9999 -9999 -9999 -9999 -9999 -9999 -9999 -9999 -9999 3868 3903 3846 3648 3563 3509 3448 3412 3412 3326 3113 3178 3086 3034 2922 2941 3005 3191 3342 3496 3496 3428 3338 3425 3370 3270 3132 3132 2969 3021 3066 3054 3040 2900 2900 2760 2984 3055 3142 2882 2882 2765 2524 2387 2188 1999 1999 2158 2158 2214 2129 1943 1915 1904 1782 1971 2029 2022 1924 1787 1535 1535 1567 1797 1911 1911 1965 2102 2102 2158 2155 2166 2205 2221 2278 2256 2184 2173 2272 2372 2524 2601 2662 3054 3054 3188 3327 3400 3216 3216 2883 2857 2879 2958 2987 2987 2546 2364 2625 2920 3044 3232 3332 3332 3411 3522 3668 3860 3741 3741 3592 3601 3738 3759 3738 3842 3949 4190 4437 4284 4215 4125 4125 4051 3970 3903 3798 3700 3563 3455 3293 3028 2959 2851 2640 2617 2617 2474 2419 2378 2546 2546 2801 2911 2987 2977 3035 3371 3487 3863 3863 4089 4300 4211 4165 -9999 -9999 -9999 -9999 -9999 -9999 -9999 -9999 -9999 -9999 -9999 -9999 -9999 -9999 -9999 -9999 -9999 -9999 -9999 -9999 -9999 -9999 -9999 -9999 -9999 -9999 -9999 -9999 -9999 -9999 -9999 -9999 -9999 -9999 -9999 -9999 -9999 -9999 -9999 -9999 -9999 -9999 -9999 -9999 -9999 -9999 -9999 -9999 -9999 -9999 -9999 -9999 -9999 -9999 -9999 -9999 -9999 -9999 -9999 -9999 -9999 -9999 -9999 -9999 -9999 -9999 -9999 -9999 -9999 -9999 -9999 -9999 -9999 -9999 -9999 -9999 -9999 -9999 -9999 -9999 -9999 -9999 -9999 -9999 -9999 -9999 -9999 -9999
-9999 -9999 -9999 -9999 -9999 -9999 -9999 -9999 -9999 -9999 -9999 -9999 -9999 -9999 -9999 -9999 -9999 -9999 -9999 -9999 -9999 -9999 -9999 -9999 -9999 -9999 -9999 -9999 -9999 -9999 -9999 -9999 -9999 -9999 -9999 -9999 -9999 -9999 -9999 -9999 -9999 -9999 -9999 -9999 -9999 -9999 -9999 -9999 -9999 -9999 -9999 -9999 -9999 3919 3959 3863 3651 3543 3483 3436 3339 3339 3267 3223 3262 3152 3007 2908 2873 2983 3078 3299 3436 3436 3398 3305 3365 3362 3263 3114 3114 3021 2925 2976 2991 2978 2832 2832 2737 2950 3053 3143 2904 2904 2766 2533 2408 2271 2042 2042 1984 1984 2076 2000 1766 1741 1704 1720 1848 1873 1847 1777 1617 1514 1514 1616 1834 1983 1983 2027 2108 2108 2216 2236 2241 2289 2278 2334 2335 2284 2279 2290 2325 2465 2559 2669 2972 2972 3085 3258 3409 3186 3186 2896 2788 2768 2823 2913 2913 2453 2239 2538 2765 2914 3079 3156 3156 3223 3463 3655 3796 3600 3600 3429 3474 3533 3539 3560 3707 3837 4111 4417 4254 4181 4063 4063 3962 3899 3874 3735 3760 3607 3508 3338 3084 2987 2937 2778 2757 2757 2626 2554 2381 2581 2581 2757 2938 3130 3096 3107 3370 3495 3892 3892 4115 4182 4142 4123 4285 -9999 -9999 -9999 -9999 -9999 -9999 -9999 -9999 -9999 -9999 -9999 -9999 -9999 -9999 -9999 -9999 -9999 -9999 -9999 -9999 -9999 -9999 -9999 -9999 -9999 -9999 -9999 -9999 -9999 -9999 -9999 -9999 -9999 -9999 -9999 -9999 -9999 -9999 -9999 -9999 -9999 -9999 -9999 -9999 -9999 -9999 -9999 -9999 -9999 -9999 -9999 -9999 -9999 -9999 -9999 -9999 -9999 -9999 -9999 -9999 -9999 -9999 -9999 -9999 -9999 -9999 -9999 -9999 -9999 -9999 -9999 -9999 -9999 -9999 -9999 -9999 -9999 -9999 -9999 -9999 -9999 -9999 -9999 -9999 -9999 -9999 -9999
-9999 -9999 -9999 -9999 -9999 -9999 -9999 -9999 -9999 -9999 -9999 -9999 -9999 -9999 -9999 -9999 -9999 -9999 -9999 -9999 -9999 -9999 -9999 -9999 -9999 -9999 -9999 -9999 -9999 -9999 -9999 -9999 -9999 -9999 -9999 -9999 -9999 -9999 -9999 -9999 -9999 -9999 -9999 -9999 -9999 -9999 -9999 -9999 -9999 -9999 -9999 -9999 -9999 -9999 3928 3859 3773 3649 3615 3549 3423 3423 3398 3364 3331 3164 3026 2908 2818 2898 3037 3231 3367 3367 3409 3272 3319 3312 3300 3135 3135 3039 2951 2877 2886 2868 2694 2694 2726 2920 3010 3109 2899 2899 2810 2608 2450 2286 2086 2086 1989 1989 1882 1861 1871 1831 1785 1668 1665 1652 1662 1726 1580 1606 1606 1678 1800 2013 2013 2116 2183 2183 2309 2302 2315 2419 2401 2398 2436 2434 2397 2381 2421 2470 2586 2801 2999 2999 3070 3251 3408 3186 3186 2924 2771 2592 2658 2756 2756 2322 2224.75 2624 2713 2777 2889 2956 2956 3118 3480 3606 3604 3401 3401 3299 3095 3290 3390 3604 3781 3862 4034 4188 4137 4054 3913 3913 3765 3602 3501 3237 3242 3370 3469 3521 3325 3214 3098 2799 2596 2596 2376 2215 2369 2564 2564 2758 2894 3114 3292 3411 3414 3458 3605 3605 3631 3775 3739 3878 4134 -9999 -9999 -9999 -9999 -9999 -9999 -9999 -9999 -9999 -9999 -9999 -9999 -9999 -9999 -9999 -9999 -9999 -9999 -9999 -9999 -9999 -9999 -9999 -9999 -9999 -9999 -9999 -9999 -9999 -9999 -9999 -9999 -9999 -9999 -9999 -9999 -9999 -9999 -9999 -9999 -9999 -9999 -9999 -9999 -9999 -9999 -9999 -9999 -9999 -9999 -9999 -9999 -9999 -9999 -9999 -9999 -9999 -9999 -9999 -9999 -9999 -9999 -9999 -9999 -9999 -9999 -9999 -9999 -9999 -9999 -9999 -9999 -9999 -9999 -9999 -9999 -9999 -9999 -9999 -9999 -9999 -9999 -9999 -9999 -9999 -9999 -9999
-9999 -9999 -9999 -9999 -9999 -9999 -9999 -9999 -9999 -9999 -9999 -9999 -9999 -9999 -9999 -9999 -9999 -9999 -9999 -9999 -9999 -9999 -9999 -9999 -9999 -9999 -9999 -9999 -9999 -9999 -9999 -9999 -9999 -9999 -9999 -9999 -9999 -9999 -9999 -9999 -9999 -9999 -9999 -9999 -9999 -9999 -9999 -9999 -9999 -9999 -9999 -9999 -9999 -9999 4027 3986 3841 3754 3717 3636 3620 3620 3594 3421 3353 3213 3043 2950 2747 2872 2998 3179 3299 3299 3448 3352 3225 3163 3194 3073 3073 2999 2951 2902 2723 2715 2675 2675 2775 2936 2982 3058 2914 2914 2778 2562 2415 2263 2111 2111 2084 2084 2122 2158 2065 2004 1942 1853 1750 1749 1701 1635 1481 1706 1706 1812 1921 1973 1973 2243 2353 2353 2466 2505 2509 2654 2630 2704 2674 2708 2699 2692 2742 2713 2727 2806 3052 3052 3174 3374 3297 3103 3103 2808 2646 2543 2377 2336 2336 2080 2250 2500 2638 2681 2839 3002 3002 3035 2946 2978 2987 2894 2894 2820 3057 3288 3466 3846 3943 3891 3915 3991 4087 4003 3892 3892 3777 3602 3478 3159 3017 3212 3253 3371 3306 3227 3085 2736 2551 2551 2255 2225 2480 2768 2768 2908 3068 3207 3284 3191 3190 3245 3422 3422 3540 3604 3774 3927 4193 -9999 -9999 -9999 -9999 -9999 -9999 -9999 -9999 -9999 -9999 -9999 -9999 -9999 -9999 -9999 -9999 -9999 -9999 -9999 -9999 -9999 -9999 -9999 -9999 -9999 -9999 -9999 -9999 -9999 -9999 -9999 -9999 -9999 -9999 -9999 -9999 -9999 -9999 -9999 -9999 -9999 -9999 -9999 -9999 -9999 -9999 -9999 -9999 -9999 -9999 -9999 -9999 -9999 -9999 -9999 -9999 -9999 -9999 -9999 -9999 -9999 -9999 -9999 -9999 -9999 -9999 -9999 -9999 -9999 -9999 -9999 -9999 -9999 -9999 -9999 -9999 -9999 -9999 -9999 -9999 -9999 -9999 -9999 -9999 -9999 -9999 -9999
-9999 -9999 -9999 -9999 -9999 -9999 -9999 -9999 -9999 -9999 -9999 -9999 -9999 -9999 -9999 -9999 -9999 -9999 -9999 -9999 -9999 -9999 -9999 -9999 -9999 -9999 -9999 -9999 -9999 -9999 -9999 -9999 -9999 -9999 -9999 -9999 -9999 -9999 -9999 -9999 -9999 -9999 -9999 -9999 -9999 -9999 -9999 -9999 -9999 -9999 -9999 -9999 -9999 -9999 -9999 3978 3766 3651 3576 3476 3463 3463 3411 3356 3182 3076 3066 2940 2735 2882 3008 3207 3305 3305 3465 3337 3231 3033 2995 2941 2941 2900 2881 2829 2665 2608 2715 2715 2785 2934 3000 3080 2924 2924 2722 2578 2517 2378 2217 2217 2184 2232 2243 2267 2185 2076 2041 1961 1898 1906 1616 1471 1580 1735 1735 1805 2030 2074 2074 2251 2409 2409 2587 2639 2689 2803 2811 2778 2730 2789 2785 2757 2806 2777 2784 2857 3066 3066 3149 3316 3279 3120 3120 2846 2684 2610 2427 2397 2397 2057 2190 2473 2621 2677 2809 2860 2860 2915 2809 2840 2879 2757 2757 2748 3033 3218 3325 3880 3933 3798 3845 3907 4099 4024 3902 3902 3759 3617 3518 3209 2973 3056 3102 3257 3184 3149 3049 2753 2573 2573 2197 2307 2573 2899 2899 3028 3110 3169 3181 3043 3067 3143 3332 3332 3421 3651 3845 4002 4195 -9999 -9999 -9999 -9999 -9999 -9999 -9999 -9999 -9999 -9999 -9999 -9999 -9999 -9999 -9999 -9999 -9999 -9999 -9999 -9999 -9999 -9999 -9999 -9999 -9999 -9999 -9999 -9999 -9999 -9999 -9999 -9999 -9999 -9999 -9999 -9999 -9999 -9999 -9999 -9999 -9999 -9999 -9999 -9999 -9999 -9999 -9999 -9999 -9999 -9999 -9999 -9999 -9999 -9999 -9999 -9999 -9999 -9999 -9999 -9999 -9999 -9999 -9999 -9999 -9999 -9999 -9999 -9999 -9999 -9999 -9999 -9999 -9999 -9999 -9999 -9999 -9999 -9999 -9999 -9999 -9999 -9999 -9999 -9999 -9999 -9999 -9999
-9999 -9999 -9999 -9999 -9999 -9999 -9999 -9999 -9999 -9999 -9999 -9999 -9999 -9999 -9999 -9999 -9999 -9999 -9999 -9999 -9999 -9999 -9999 -9999 -9999 -9999 -9999 -9999 -9999 -9999 -9999 -9999 -9999 -9999 -9999 -9999 -9999 -9999 -9999 -9999 -9999 -9999 -9999 -9999 -9999 -9999 -9999 -9999 -9999 -9999 -9999 -9999 -9999 3976 4010 3995 3764 3640 3536 3413 3308 3308 3266 3118 3101 3018 2943 2851 2742 2869 3012 3182 3302 3302 3465 3351 3297 3121 3057 3017 3132 3090 3038 2935 2590 2665 2728 2728 2852 2998 3017 3100 3002 3002 2907 2716 2590 2431 2387 2387 2309 2309 2327 2325 2268 2125 2079 2042 1969 1866 1596 1465 1581 1754 1754 1853 2053 2148 2148 2278 2396 2396 2631 2714 2765 2907 2917 2880 2849 2848 2872 2838 2868 2857 2842 2883 2998 2998 3127 3275 3204 3120 3120 2878 2779 2676 2532 2410 2410 2046 2166 2529 2549 2554 2652 2662 2662 2727 2592 2634 2569 2647 2647 2788 3043 3158 3280 3789 3767 3698 3861 3758 4008 3982 3796 3796 3641 3499 3509 3216 3029 2841 2901 3095 3102 2970 2895 2696 2540 2540 2147 2343 2625 2846 2846 2866 2850 2897 2883 2947 3212 3295 3316 3316 3391 3702 3799 3972 4247 -9999 -9999 -9999 -9999 -9999 -9999 -9999 -9999 -9999 -9999 -9999 -9999 -9999 -9999 -9999 -9999 -9999 -9999 -9999 -9999 -9999 -9999 -9999 -9999 -9999 -9999 -9999 -9999 -9999 -9999 -9999 -9999 -9999 -9999 -9999 -9999 -9999 -9999 -9999 -9999 -9999 -9999 -9999 -9999 -9999 -9999 -9999 -9999 -9999 -9999 -9999 -9999 -9999 -9999 -9999 -9999 -9999 -9999 -9999 -9999 -9999 -9999 -9999 -9999 -9999 -9999 -9999 -9999 -9999 -9999 -9999 -9999 -9999 -9999 -9999 -9999 -9999 -9999 -9999 -9999 -9999 -9999 -9999 -9999 -9999 -9999 -9999
-9999 -9999 -9999 -9999 -9999 -9999 -9999 -9999 -9999 -9999 -9999 -9999 -9999 -9999 -9999 -9999 -9999 -9999 -9999 -9999 -9999 -9999 -9999 -9999 -9999 -9999 -9999 -9999 -9999 -9999 -9999 -9999 -9999 -9999 -9999 -9999 -9999 -9999 -9999 -9999 -9999 -9999 -9999 -9999 -9999 -9999 -9999 -9999 -9999 -9999 -9999 3671 3728 3766 3785 3824 3751 3697 3635 3551 3401 3550 3403 3134 3005 2920 2813 2716 2819 2939 3019 3147 3277 3277 3462 3444 3391 3241 3265 3225 3225 3174 3069 2994 2651 2617 2803 2803 2870 3007 3069 3124 3104 3104 3015 2767 2639 2546 2446 2446 2502 2502 2426 2457 2303 2209 2174 2089 1941 1831 1587 1481 1585 1747 1747 1857 2075 2199 2199 2300 2407 2407 2589 2739 2851 2924 2875 2766 2817 2849 2868 2942 2931 2942 2932 2910 3028 3028 3095 3194 3094 2964 2964 2919 2820 2724 2567 2494 2494 1982.25 2235 2344 2300 2351 2447 2520 2520 2474 2439 2473 2549 2765 2765 2836 3111 3213 3277 3610 3593 3597 3639 3617 3862 3908 3712 3712 3562 3385 3290 3183 3009 2786 2729 2930 3025 2902 2731 2502 2378 2378 2107 2376 2605 2555 2555 2543 2574 2680 2767 2986 3327 3455 3506 3506 3461 3639 3751 3866 4137 -9999 -9999 -9999 -9999 -9999 -9999 -9999 -9999 -9999 -9999 -9999 -9999 -9999 -9999 -9999 -9999 -9999 -9999 -9999 -9999 -9999 -9999 -9999 -9999 -9999 -9999 -9999 -9999 -9999 -9999 -9999 -9999 -9999 -9999 -9999 -9999 -9999 -9999 -9999 -9999 -9999 -9999 -9999 -9999 -9999 -9999 -9999 -9999 -9999 -9999 -9999 -9999 -9999 -9999 -9999 -9999 -9999 -9999 -9999 -9999 -9999 -9999 -9999 -9999 -9999 -9999 -9999 -9999 -9999 -9999 -9999 -9999 -9999 -9999 -9999 -9999 -9999 -9999 -9999 -9999 -9999 -9999 -9999 -9999 -9999 -9999 -9999
-9999 -9999 -9999 -9999 -9999 -9999 -9999 -9999 -9999 -9999 -9999 -9999 -9999 -9999 -9999 -9999 -9999 -9999 -9999 -9999 -9999 -9999 -9999 -9999 -9999 -9999 -9999 -9999 -9999 -9999 -9999 -9999 -9999 -9999 -9999 -9999 -9999 -9999 -9999 -9999 -9999 -9999 -9999 -9999 -9999 -9999 -9999 -9999 -9999 -9999 3532 3364 3303 3263 3191 3211 3176 3291 3285 3224 3299 3299 3260 3279 3073 2911 2797 2713 2738 2841 2957 3107 3251 3251 3451 3542 3488 3381 3319 3204 3204 3075 2928 2875 2542 2671 2729 2729 2893 3015 3099 3196 3253 3253 3131 2878 2749 2800 2672 2672 2640 2640 2571 2555 2382 2310 2246 2126 1934 1756 1482 1472 1622 1805 1805 1896 2081 2239 2239 2395 2484 2484 2641 2741 2680 2594 2638 2779 2899 2992 3035 3072 3075 3094 3102 3109 3214 3214 3227 3073 2845 2720 2720 2620 2507 2408 2191 2050 2050 2061 2112 2155 2213 2276 2274 2308 2308 2340 2589 2608 2697 2859 2859 2989 3324 3424 3479 3471 3364 3299 3464 3599 3733 3708 3642 3642 3542 3428 3336 3077 2946 2807 2738 2655 2705 2588 2528 2383 2280 2280 2174 2308 2319 2513 2513 2691 2785 2881 2962 3148 3485 3570 3673 3673 3660 3727 3850 3982 4138 -9999 -9999 -9999 -9999 -9999 -9999 -9999 -9999 -9999 -9999 -9999 -9999 -9999 -9999 -9999 -9999 -9999 -9999 -9999 -9999 -9999 -9999 -9999 -9999 -9999 -9999 -9999 -9999 -9999 -9999 -9999 -9999 -9999 -9999 -9999 -9999 -9999 -9999 -9999 -9999 -9999 -9999 -9999 -9999 -9999 -9999 -9999 -9999 -9999 -9999 -9999 -9999 -9999 -9999 -9999 -9999 -9999 -9999 -9999 -9999 -9999 -9999 -9999 -9999 -9999 -9999 -9999 -9999 -9999 -9999 -9999 -9999 -9999 -9999 -9999 -9999 -9999 -9999 -9999 -9999 -9999 -9999 -9999 -9999 -9999 -9999 -9999
-9999 -9999 -9999 -9999 -9999 -9999 -9999 -9999 -9999 -9999 -9999 -9999 -9999 -9999 -9999 -9999 -9999 -9999 -9999 -9999 -9999 -9999 -9999 -9999 -9999 -9999 -9999 -9999 -9999 -9999 -9999 -9999 -9999 -9999 -9999 -9999 -9999 -9999 -9999 -9999 -9999 -9999 -9999 -9999 -9999 -9999 -9999 -9999 -9999 3552 3558 3328 3226 3155 3126 3102 3048 3055 3105 3094 3024 3024 3040 3092 3110 2911 2805 2731 2684 2805 2908 3092 3184 3184 3349 3471 3485 3295 3243 3094 3094 2908 2784 2720 2567 2640 2797 2797 2793 2948 2990 3066 3274 3274 3163 2956 2875 2889 2911 2911 2846 2846 2682 2610 2418 2350 2294 2199 2040 1878 1560 1433 1611 1794 1794 1910 2112 2243 2243 2444 2584 2584 2702 2623 2510 2440 2541 2705 2844 2926 2972 3179 3158 3153 3202 3234 3228 3228 3150 3042 2760 2619 2619 2451 2336 2183 1940 1892.25 1892.25 2079 2159 2287 2289 2355 2414 2413 2413 2496 2688 2758 2783 2927 2927 3039 3387 3317 3263 3373 3211 3187 3366 3511 3414 3564 3491 3491 3500 3380 3323 3125 2990 2811 2676 2587 2507 2385 2300 2123 2091 2091 2281 2482 2549 2690 2690 2819 2928 3052 3180 3254 3468 3563 3781 3781 3805 3815 3922 3973 4176 -9999 -9999 -9999 -9999 -9999 -9999 -9999 -9999 -9999 -9999 -9999 -9999 -9999 -9999 -9999 -9999 -9999 -9999 -9999 -9999 -9999 -9999 -9999 -9999 -9999 -9999 -9999 -9999 -9999 -9999 -9999 -9999 -9999 -9999 -9999 -9999 -9999 -9999 -9999 -9999 -9999 -9999 -9999 -9999 -9999 -9999 -9999 -9999 -9999 -9999 -9999 -9999 -9999 -9999 -9999 -9999 -9999 -9999 -9999 -9999 -9999 -9999 -9999 -9999 -9999 -9999 -9999 -9999 -9999 -9999 -9999 -9999 -9999 -9999 -9999 -9999 -9999 -9999 -9999 -9999 -9999 -9999 -9999 -9999 -9999 -9999 -9999
-9999 -9999 -9999 -9999 -9999 -9999 -9999 -9999 -9999 -9999 -9999 -9999 -9999 -9999 -9999 -9999 -9999 -9999 -9999 -9999 -9999 -9999 -9999 -9999 -9999 -9999 -9999 -9999 -9999 -9999 -9999 -9999 -9999 -9999 -9999 -9999 -9999 -9999 -9999 -9999 -9999 -9999 -9999 -9999 -9999 -9999 -9999 -9999 -9999 3631 3458 3294 3229 3174 3148 3155 3016 2956 2930 2895 2895 2895 2866 2880 2907 2918 2810 2752 2629 2748 2907 2953 3086 3086 3296 3385 3435 3211 3119 2982 2982 2872 2757 2688 2619 2694 2814 2814 2885 3010 3052 3131 3287 3287 3247 3039 3010 2994 3011 3011 2888 2888 2698 2630 2462 2405 2362 2197 1950 1912 1628 1425.25 1570 1828 1828 1924 2145 2266 2266 2449 2560 2560 2566 2433 2324 2322 2445 2617 2688 2775 2854 3128 3205 3256 3310 3324 3279 3279 3147 2943 2767 2703 2703 2459 2264 2029 1892.25 2021 2021 2160 2202 2404 2441 2484 2486 2494 2494 2549 2825 2863 2887 2981 2981 3104 3332 3215 3128 3145 3128 3037 3225 3354 3276 3277 3256 3256 3460 3503 3435 3111 2948 2759 2628 2523 2462 2469 2373 2143 2005 2005 2177 2241 2488 2642 2642 2688 2810 2989 3017 3149 3327 3419 3728 3728 3856 3956 4039 4066 -9999 -9999 -9999 -9999 -9999 -9999 -9999 -9999 -9999 -9999 -9999 -9999 -9999 -9999 -9999 -9999 -9999 -9999 -9999 -9999 -9999 -9999 -9999 -9999 -9999 -9999 -9999 -9999 -9999 -9999 -9999 -9999 -9999 -9999 -9999 -9999 -9999 -9999 -9999 -9999 -9999 -9999 -9999 -9999 -9999 -9999 -9999 -9999 -9999 -9999 -9999 -9999 -9999 -9999 -9999 -9999 -9999 -9999 -9999 -9999 -9999 -9999 -9999 -9999 -9999 -9999 -9999 -9999 -9999 -9999 -9999 -9999 -9999 -9999 -9999 -9999 -9999 -9999 -9999 -9999 -9999 -9999 -9999 -9999 -9999 -9999 -9999 -9999
-9999 -9999 -9999 -9999 -9999 -9999 -9999 -9999 -9999 -9999 -9999 -9999 -9999 -9999 -9999 -9999 -9999 -9999 -9999 -9999 -9999 -9999 -9999 -9999 -9999 -9999 -9999 -9999 -9999 -9999 -9999 -9999 -9999 -9999 -9999 -9999 -9999 -9999 -9999 -9999 -9999 -9999 -9999 -9999 -9999 -9999 -9999 -9999 -9999 3610 3431 3307 3299 3233 3225 3222 3088 2985 2983 2932 2932 2840 2819 2748 2762 2764 2687 2653 2591 2660 2769 2916 3025 3025 3210 3326 3346 3178 3093 2946 2946 2823 2687 2565 2623 2681 2833 2833 2889 3063 3101 3162 3271 3271 3316 3184 3148 3120 2907 2907 2761 2761 2569 2501 2391 2257 2176 2138 2023 1868 1588 1421 1533 1754 1754 1924 2164 2241 2241 2305 2380 2380 2464 2369 2245 2318 2362 2414 2542 2659 2769 2993 3010 3148 3236 3360 3179 3179 3107 3050 2813 2655 2655 2283 2146 1950 2036 2232 2232 2294 2303 2536 2571 2606 2584 2607 2607 2649 2941 3004 3054 3152 3152 3247 3260 3126 3024 3009 2961 3003 3193 3147 3078 3089 3119 3119 3219 3337 3264 2986 2866 2754 2716 2648 2573 2489 2359 1997 2006 2006 2340 2280 2389 2471 2471 2505 2694 2780 2843 2928 3159 3230 3610 3610 3811 4100 4095 4160 -9999 -9999 -9999 -9999 -9999 -9999 -9999 -9999 -9999 -9999 -9999 -9999 -9999 -9999 -9999 -9999 -9999 -9999 -9999 -9999 -9999 -9999 -9999 -9999 -9999 -9999 -9999 -9999 -9999 -9999 -9999 -9999 -9999 -9999 -9999 -9999 -9999 -9999 -9999 -9999 -9999 -9999 -9999 -9999 -9999 -9999 -9999 -9999 -9999 -9999 -9999 -9999 -9999 -9999 -9999 -9999 -9999 -9999 -9999 -9999 -9999 -9999 -9999 -9999 -9999 -9999 -9999 -9999 -9999 -9999 -9999 -9999 -9999 -9999 -9999 -9999 -9999 -9999 -9999 -9999 -9999 -9999 -9999 -9999 -9999 -9999 -9999 -9999
-9999 -9999 -9999 -9999 -9999 -9999 -9999 -9999 -9999 -9999 -9999 -9999 -9999 -9999 -9999 -9999 -9999 -9999 -9999 -9999 -9999 -9999 -9999 -9999 -9999 -9999 -9999 -9999 -9999 -9999 -9999 -9999 -9999 -9999 -9999 -9999 -9999 -9999 -9999 -9999 -9999 -9999 -9999 -9999 -9999 -9999 -9999 -9999 -9999 3617 3473 3376 3374 3258 3308 3278 3175 3032 3039 3020 3020 2935 2928 2841 2755 2736 2729 2711 2598 2603 2684 2840 2976 2976 3129 3210 3264 3075 3034 3034 2909 2723 2564 2493 2689 2729 2834 2834 2926 3041 3072 3142 3291 3291 3375 3321 3260 3079 2885 2885 2752 2752 2601 2575 2450 2367 2320 2157 2049 1987 1653 1426 1478 1702 1702 1819 1976 2051 2051 2111 2176 2176 2195 2159 2013 2141 2219 2293 2397 2483 2575 2751 2965 3066 3147 3225 2975 2975 3018 2915 2533 2353 2353 2087 1937 1892.25 2075 2355 2355 2420 2406 2591 2660 2657 2686 2655 2655 2688 3036 3084 3089 3199 3199 3230 3164 3025 2950 2847 2956 3017 3074 2957 2934 2966 2941 2941 3030 3238 3235 3048 2992 2932 2872 2765 2512 2416 2265 1961.75 2131 2131 2529 2492 2527 2641 2641 2634 2652 2733 2738 2760 2965 3079 3457 3457 3713 3932 4063 4161 4149 -9999 -9999 -9999 -9999 -9999 -9999 -9999 -9999 -9999 -9999 -9999 -9999 -9999 -9999 -9999 -9999 -9999 -9999 -9999 -9999 -9999 -9999 -9999 -9999 -9999 -9999 -9999 -9999 -9999 -9999 -9999 -9999 -9999 -9999 -9999 -9999 -9999 -9999 -9999 -9999 -9999 -9999 -9999 -9999 -9999 -9999 -9999 -9999 -9999 -9999 -9999 -9999 -9999 -9999 -9999 -9999 -9999 -9999 -9999 -9999 -9999 -9999 -9999 -9999 -9999 -9999 -9999 -9999 -9999 -9999 -9999 -9999 -9999 -9999 -9999 -9999 -9999 -9999 -9999 -9999 -9999 -9999 -9999 -9999 -9999 -9999 -9999
-9999 -9999 -9999 -9999 -9999 -9999 -9999 -9999 -9999 -9999 -9999 -9999 -9999 -9999 -9999 -9999 -9999 -9999 -9999 -9999 -9999 -9999 -9999 -9999 -9999 -9999 -9999 -9999 -9999 -9999 -9999 -9999 -9999 -9999 -9999 -9999 -9999 -9999 -9999 -9999 -9999 -9999 -9999 -9999 -9999 -9999 -9999 -9999 -9999 3691 3530 3471 3464 3413 3470 3448 3257 3209 3205 3200 3200 3102 3106 2990 2898 2912 2887 2875 2715 2550 2576 2725 2816 2816 2867 2929 3043 2899 2798 2798 2644 2580 2435 2512 2608 2704 2938 2938 3016 3103 3127 3171 3307 3307 3353 3402 3289 3153 3153 2942 2795 2795 2744 2700 2507 2405 2333 2281 2212 2033 1641 1467 1430 1362 1362 1382 1632 1677 1677 1790 1820 1820 1872 1886 1935 2117 2139 2190 2222 2300 2394 2769 2922 3074 3191 3142 2631 2631 2682 2578 2457 2265 2265 1959 1841 2008 2049 2253 2253 2588 2580 2663 2783 2793 2806 2744 2744 2824 3060 3023 2968 2897 2897 3030 2878 2815 2767 2910 2932 2868 2781 2759 2697 2696 2705 2705 2884 3044 3210 3253 3117 2978 2905 2777 2479 2402 2282 1991 1955 1955 2429 2688 2910 2961 2961 2973 2958 3011 3086 3036 3150 3232 3336 3336 3571 3870 3888 3923 3917 3917 3905 -9999 -9999 -9999 -9999 -9999 -9999 -9999 -9999 -9999 -9999 -9999 -9999 -9999 -9999 -9999 -9999 -9999 -9999 -9999 -9999 -9999 -9999 -9999 -9999 -9999 -9999 -9999 -9999 -9999 -9999 -9999 -9999 -9999 -9999 -9999 -9999 -9999 -9999 -9999 -9999 -9999 -9999 -9999 -9999 -9999 -9999 -9999 -9999 -9999 -9999 -9999 -9999 -9999 -9999 -9999 -9999 -9999 -9999 -9999 -9999 -9999 -9999 -9999 -9999 -9999 -9999 -9999 -9999 -9999 -9999 -9999 -9999 -9999 -9999 -9999 -9999 -9999 -9999 -9999 -9999 -9999 -9999 -9999 -9999 -9999
-9999 -9999 -9999 -9999 -9999 -9999 -9999 -9999 -9999 -9999 -9999 -9999 -9999 -9999 -9999 -9999 -9999 -9999 -9999 -9999 -9999 -9999 -9999 -9999 -9999 -9999 -9999 -9999 -9999 -9999 -9999 -9999 -9999 -9999 -9999 -9999 -9999 -9999 -9999 -9999 -9999 -9999 -9999 -9999 -9999 -9999 -9999 -9999 -9999 3686 3685 3587 3592 3567 3591 3577 3362 3344 3316 3295 3295 3155 3198 3054 2998 2981 2964 2942 2766 2625 2523 2624 2656 2656 2707 2846 2895 2764 2638 2638 2580 2459 2489 2579 2699 2700 2837 2837 2921 3153 3166 3213 3344 3344 3398 3441 3325 3165 3165 2970 2928 2928 2771 2688 2497 2442 2443 2356 2131 1920 1633 1606 1533 1456 1456 1393 1337 1337 1399 1492 1613 1613 1763 1824 1970 2219 2238 2303 2344 2427 2463 2791 3000 3088 3203 3040 2536 2536 2432 2352 2230 2138 2138 1939 1745 1969 2157 2226 2226 2569 2654 2722 2839 2895 2884 2872 2872 2992 3016 2976 2878 2761 2761 2878 2710 2644 2659 2868 2750 2722 2714 2689 2526 2523 2588 2588 2736 2957 3086 3175 3031 2895 2819 2689 2394 2302 2164 1918 2019 2019 2439 2674 2855 3062 3062 3197 3184 3177 3239 3149 3349 3395 3543 3543 3548 3789 3791 3817 3910 3910 3834 3919 -9999 -9999 -9999 -9999 -9999 -9999 -9999 -9999 -9999 -9999 -9999 -9999 -9999 -9999 -9999 -9999 -9999 -9999 -9999 -9999 -9999 -9999 -9999 -9999 -9999 -9999 -9999 -9999 -9999 -9999 -9999 -9999 -9999 -9999 -9999 -9999 -9999 -9999 -9999 -9999 -9999 -9999 -9999 -9999 -9999 -9999 -9999 -9999 -9999 -9999 -9999 -9999 -9999 -9999 -9999 -9999 -9999 -9999 -9999 -9999 -9999 -9999 -9999 -9999 -9999 -9999 -9999 -9999 -9999 -9999 -9999 -9999 -9999 -9999 -9999 -9999 -9999 -9999 -9999 -9999 -9999 -9999 -9999 -9999
-9999 -9999 -9999 -9999 -9999 -9999 -9999 -9999 -9999 -9999 -9999 -9999 -9999 -9999 -9999 -9999 -9999 -9999 -9999 -9999 -9999 -9999 -9999 -9999 -9999 -9999 -9999 -9999 -9999 -9999 -9999 -9999 -9999 -9999 -9999 -9999 -9999 -9999 -9999 -9999 -9999 -9999 -9999 -9999 -9999 -9999 -9999 -9999 -9999 -9999 3778 3734 3707 3688 3688 3681 3515 3471 3435 3372 3372 3295 3225 3148 3084 3040 3043 3020 2822 2662 2520 2514 2517 2517 2613 2663 2741 2670 2591 2591 2433 2430 2507 2555 2771 2779 2869 2869 2936 3109 3174 3294 3395 3395 3413 3460 3318 3170 3170 3048 2945 2945 2723 2643 2415 2353 2369 2252 1954 1738 1784 1729 1628 1560 1560 1517 1435 1435 1370 1300 1416 1416 1691 1876 2013 2284 2365 2407 2459 2556 2647 2809 3054 3136 3072 2852 2488 2488 2440 2275 1982 1913 1913 1736 1758 1942 2185 2337 2337 2449 2646 2871 2916 2961 2965 3104 3104 3152 2975 2850 2785 2680 2680 2678 2652 2624 2809 2746 2658 2637 2605 2589 2428 2412 2539 2539 2701 2829 2959 3043 2942 2788 2713 2634 2341 2224 2098 1900 2099 2099 2371 2516 2649 2903 2903 3064 3222 3349 3366 3351 3508 3543 3720 3720 3756 3637 3627 3761 3845 3845 3791 3840 -9999 -9999 -9999 -9999 -9999 -9999 -9999 -9999 -9999 -9999 -9999 -9999 -9999 -9999 -9999 -9999 -9999 -9999 -9999 -9999 -9999 -9999 -9999 -9999 -9999 -9999 -9999 -9999 -9999 -9999 -9999 -9999 -9999 -9999 -9999 -9999 -9999 -9999 -9999 -9999 -9999 -9999 -9999 -9999 -9999 -9999 -9999 -9999 -9999 -9999 -9999 -9999 -9999 -9999 -9999 -9999 -9999 -9999 -9999 -9999 -9999 -9999 -9999 -9999 -9999 -9999 -9999 -9999 -9999 -9999 -9999 -9999 -9999 -9999 -9999 -9999 -9999 -9999 -9999 -9999 -9999 -9999 -9999 -9999
-9999 -9999 -9999 -9999 -9999 -9999 -9999 -9999 -9999 -9999 -9999 -9999 -9999 -9999 -9999 -9999 -9999 -9999 -9999 -9999 -9999 -9999 -9999 -9999 -9999 -9999 -9999 -9999 -9999 -9999 -9999 -9999 -9999 -9999 -9999 -9999 -9999 -9999 -9999 -9999 -9999 -9999 -9999 -9999 -9999 -9999 -9999 -9999 -9999 -9999 3753 3774 3757 3652 3675 3713 3589 3557 3511 3421 3421 3324 3272 3195 3132 3087 3093 3082 2796 2644 2546 2471 2460 2460 2486 2538 2653 2583 2478 2478 2406.75 2443 2500 2555 2757 2831 2904 2904 2980 3122 3195 3299 3437 3437 3465 3499 3365 3249 3249 3065 2915 2915 2695 2650 2463 2298 2197 1986 1864 1809 1858 1797 1700 1637 1637 1543 1539 1539 1456 1338 1302 1302 1596 1784 1922 2216 2324 2487 2522 2608 2704 2881 3056 3084 2952 2834 2548 2548 2480 2335 2007 1899 1899 1780 1771 1866 2153 2330 2330 2471 2528 2895 3010 3029 3105 3225 3225 3197 2951 2859 2761 2617 2617 2576 2567 2657 2822 2669 2606 2621 2551 2508 2350 2406 2555 2555 2662 2809 2936 2963 2861 2762 2683 2572 2286 2218 2106 1848 2029 2029 2256 2366 2544 2774 2774 2956 3167 3364 3451 3519 3620 3656 3816 3816 3733 3504 3606 3763 3833 3833 3757 3838 -9999 -9999 -9999 -9999 -9999 -9999 -9999 -9999 -9999 -9999 -9999 -9999 -9999 -9999 -9999 -9999 -9999 -9999 -9999 -9999 -9999 -9999 -9999 -9999 -9999 -9999 -9999 -9999 -9999 -9999 -9999 -9999 -9999 -9999 -9999 -9999 -9999 -9999 -9999 -9999 -9999 -9999 -9999 -9999 -9999 -9999 -9999 -9999 -9999 -9999 -9999 -9999 -9999 -9999 -9999 -9999 -9999 -9999 -9999 -9999 -9999 -9999 -9999 -9999 -9999 -9999 -9999 -9999 -9999 -9999 -9999 -9999 -9999 -9999 -9999 -9999 -9999 -9999 -9999 -9999 -9999 -9999 -9999 -9999
-9999 -9999 -9999 -9999 -9999 -9999 -9999 -9999 -9999 -9999 -9999 -9999 -9999 -9999 -9999 -9999 -9999 -9999 -9999 -9999 -9999 -9999 -9999 -9999 -9999 -9999 -9999 -9999 -9999 -9999 -9999 -9999 -9999 -9999 -9999 -9999 -9999 -9999 -9999 -9999 -9999 -9999 -9999 -9999 -9999 -9999 -9999 -9999 -9999 -9999 3756 3764 3676 3557 3457 3488 3592 3496 3500 3481 3481 3395 3357 3282 3217 3160 3169 3144 2808 2664 2579 2593 2586 2586 2421 2490 2591 2494 2391 2391 2476 2491 2551 2613 2774 2887 2962 2962 3017 3132 3170 3256 3404 3404 3454 3486 3325 3224 3224 2975 2859 2859 2739 2694 2372 2243 2121 1978 1915 1956 1989 1909 1830 1734 1734 1676 1655 1655 1586 1458 1343 1343 1445 1586 1799 2096 2189 2367 2504 2593 2670 2943 3056 2991 2893 2712 2712 2659 2574 2419 2090 1990 1990 1641 1754 1908 2087 2248 2248 2569 2616 2866 3039 3221 3296 3260 3260 3147 2960 2845 2741 2615 2615 2550 2543 2646 2727 2580 2547 2548 2464 2394 2271 2355 2502 2502 2631 2732 2883 2914 2800 2709 2620 2498 2238 2164 2055 1813 2027 2027 2155 2274 2347 2636 2636 2812 3010 3186 3280 3457 3768 3796 3668 3668 3605 3380 3507 3654 3738 3738 3679 3911 3958 3958 -9999 -9999 -9999 -9999 -9999 -9999 -9999 -9999 -9999 -9999 -9999 -9999 -9999 -9999 -9999 -9999 -9999 -9999 -9999 -9999 -9999 -9999 -9999 -9999 -9999 -9999 -9999 -9999 -9999 -9999 -9999 -9999 -9999 -9999 -9999 -9999 -9999 -9999 -9999 -9999 -9999 -9999 -9999 -9999 -9999 -9999 -9999 -9999 -9999 -9999 -9999 -9999 -9999 -9999 -9999 -9999 -9999 -9999 -9999 -9999 -9999 -9999 -9999 -9999 -9999 -9999 -9999 -9999 -9999 -9999 -9999 -9999 -9999 -9999 -9999 -9999 -9999 -9999 -9999 -9999 -9999 -9999
-9999 -9999 -9999 -9999 -9999 -9999 -9999 -9999 -9999 -9999 -9999 -9999 -9999 -9999 -9999 -9999 -9999 -9999 -9999 -9999 -9999 -9999 -9999 -9999 -9999 -9999 -9999 -9999 -9999 -9999 -9999 -9999 -9999 -9999 -9999 -9999 -9999 -9999 -9999 -9999 -9999 -9999 -9999 -9999 -9999 -9999 -9999 -9999 -9999 -9999 3651 3390 3392 3413 3323 3246 3267 3202 3204 3235 3235 3314 3334 3212 3226 3261 3267 3228 2989 2871 2733 2801 2790 2790 2574 2483 2411 2388 2447 2447 2551 2645 2699 2771 2935 2996 3092 3092 3148 3251 3276 3333 3392 3392 3444 3475 3308 3171 3171 3020 2906 2906 2641 2569 2363 2339 2259 2136 2138 2198 2249 2129 2039 1966 1966 1945 1893 1893 1791 1588 1497 1497 1300 1300 1489 1797 1937 2087 2194 2339 2432 2771 2884 2969 2834 2670 2670 2335 2254 2113 1865 1780 1780 1715 1876 1960 2245 2469 2469 2585 2685 2943 3145 3188 3097 3014 3014 3058 2955 2867 2763 2626 2626 2534 2523 2641 2594 2417 2378 2341 2277 2273 2303 2371 2462 2462 2588 2746 2806 2741 2635 2533 2484 2375 2190 2103 1987 1864 2105 2105 2607 2674 2686 2849 2849 2946 2966 3063 3210 3388 3479 3480 3444 3444 3283 3213 3310 3361 3481 3481 3498 3740 3813 3813 -9999 -9999 -9999 -9999 -9999 -9999 -9999 -9999 -9999 -9999 -9999 -9999 -9999 -9999 -9999 -9999 -9999 -9999 -9999 -9999 -9999 -9999 -9999 -9999 -9999 -9999 -9999 -9999 -9999 -9999 -9999 -9999 -9999 -9999 -9999 -9999 -9999 -9999 -9999 -9999 -9999 -9999 -9999 -9999 -9999 -9999 -9999 -9999 -9999 -9999 -9999 -9999 -9999 -9999 -9999 -9999 -9999 -9999 -9999 -9999 -9999 -9999 -9999 -9999 -9999 -9999 -9999 -9999 -9999 -9999 -9999 -9999 -9999 -9999 -9999 -9999 -9999 -9999 -9999 -9999 -9999 -9999
-9999 -9999 -9999 -9999 -9999 -9999 -9999 -9999 -9999 -9999 -9999 -9999 -9999 -9999 -9999 -9999 -9999 -9999 -9999 -9999 -9999 -9999 -9999 -9999 -9999 -9999 -9999 -9999 -9999 -9999 -9999 -9999 -9999 -9999 -9999 -9999 -9999 -9999 -9999 -9999 -9999 -9999 -9999 -9999 -9999 -9999 -9999 -9999 -9999 3649 3502 3276 3260 3211 3140 3132 3031 3086 3093 3088 3088 3024 3060 3037 3073 3097 3114 3122 3059 2902 2821 2908 2921 2921 2690 2592 2574 2375 2375 2375 2506 2642 2758 2826 2979 3035 3120 3120 3175 3317 3359 3414 3449 3449 3492 3480 3327 3175 3175 2976 2896 2896 2626 2582 2491 2449 2375 2316 2282 2274 2378 2280 2151 2112 2112 2081 1999 1999 1875 1700 1579 1579 1441 1300 1326 1703 1804 1939 2151 2393 2450 2677 2866 2835 2789 2624 2624 2362 2279 2129 1799 1572 1572 1749 1896 2144 2388 2442 2442 2664 2718 2981 3159 3147 2995 2851 2851 2763 2646 2603 2573 2452 2452 2375 2600 2570 2550 2390 2347 2318 2189 2107 2247 2386 2474 2474 2604 2736 2794 2668 2530 2401 2347 2241 2001 1910 1843 1952 2113 2113 2448 2602 2711 2902 2902 3077 3199 3295 3345 3378 3193 3279 3312 3312 3236 3220 3385 3419 3458 3458 3495 3714 3762 3762 -9999 -9999 -9999 -9999 -9999 -9999 -9999 -9999 -9999 -9999 -9999 -9999 -9999 -9999 -9999 -9999 -9999 -9999 -9999 -9999 -9999 -9999 -9999 -9999 -9999 -9999 -9999 -9999 -9999 -9999 -9999 -9999 -9999 -9999 -9999 -9999 -9999 -9999 -9999 -9999 -9999 -9999 -9999 -9999 -9999 -9999 -9999 -9999 -9999 -9999 -9999 -9999 -9999 -9999 -9999 -9999 -9999 -9999 -9999 -9999 -9999 -9999 -9999 -9999 -9999 -9999 -9999 -9999 -9999 -9999 -9999 -9999 -9999 -9999 -9999 -9999 -9999 -9999 -9999 -9999 -9999 -9999
-9999 -9999 -9999 -9999 -9999 -9999 -9999 -9999 -9999 -9999 -9999 -9999 -9999 -9999 -9999 -9999 -9999 -9999 -9999 -9999 -9999 -9999 -9999 -9999 -9999 -9999 -9999 -9999 -9999 -9999 -9999 -9999 -9999 -9999 -9999 -9999 -9999 -9999 -9999 -9999 -9999 -9999 -9999 -9999 -9999 -9999 -9999 -9999 -9999 3638 3454 3204 3136 3090 3056 3021 2948 3007 3023 2951 2951 2916 2959 2940 2981 2972 3004 3006 3103 2955 2885 2947 2993 2993 2787 2653 2653 2415 2375 2375 2455 2546 2647 2702 3006 3092 3144 3144 3213 3338 3392 3487 3501 3501 3542 3492 3365 3234 3234 3058 2949 2949 2695 2652 2534 2541 2492 2426 2372 2357 2447 2370 2238 2184 2184 2179 2051 2051 1927 1767 1671 1749 1593 1484 1349 1583 1701 1873 2086 2264 2413 2682 2757 2604 2513 2402 2402 2221 2140 2005 1647 1541.75 1541.75 1818 2178 2237 2654 2749 2749 2809 2851 3014 3145 3074 2933 2933 2834 2703 2574 2518 2487 2432 2432 2344 2613 2566 2526 2438 2373 2292 2141 2042 2152 2303 2400 2400 2547 2668 2723 2618 2505 2392 2328 2244 1993 1918 1810 2016 2090 2090 2286 2466 2555 2773 2773 2918 3038 3202 3267 3204 3073 3108 3157 3157 3133 3237 3448 3572 3540 3540 3683 3794 -9999 -9999 -9999 -9999 -9999 -9999 -9999 -9999 -9999 -9999 -9999 -9999 -9999 -9999 -9999 -9999 -9999 -9999 -9999 -9999 -9999 -9999 -9999 -9999 -9999 -9999 -9999 -9999 -9999 -9999 -9999 -9999 -9999 -9999 -9999 -9999 -9999 -9999 -9999 -9999 -9999 -9999 -9999 -9999 -9999 -9999 -9999 -9999 -9999 -9999 -9999 -9999 -9999 -9999 -9999 -9999 -9999 -9999 -9999 -9999 -9999 -9999 -9999 -9999 -9999 -9999 -9999 -9999 -9999 -9999 -9999 -9999 -9999 -9999 -9999 -9999 -9999 -9999 -9999 -9999 -9999 -9999 -9999 -9999
-9999 -9999 -9999 -9999 -9999 -9999 -9999 -9999 -9999 -9999 -9999 -9999 -9999 -9999 -9999 -9999 -9999 -9999 -9999 -9999 -9999 -9999 -9999 -9999 -9999 -9999 -9999 -9999 -9999 -9999 -9999 -9999 -9999 -9999 -9999 -9999 -9999 -9999 -9999 -9999 -9999 -9999 -9999 -9999 -9999 -9999 -9999 -9999 -9999 3573 3481 3319 3126 2992 2927 2913 2823 2869 2939 2846 2846 2797 2860 2817 2820 2780 2816 2837 2955 3006 2980 3050 3054 3054 2864 2772 2719 2482 2445 2445 2392 2498 2579 2649 2899 3046 3205 3205 3271 3426 3457 3518 3551 3551 3552 3515 3461 3304 3304 3136 3040 3040 2811 2714 2738 2765 2750 2714 2635 2649 2625 2568 2455 2393 2393 2366 2192 2192 2090 1929 1837 1837 1654 1552 1376 1516 1674 1862 2038 2139 2224 2499 2652 2552 2458 2348 2348 2050 1922 1797 1490 1585 1585 1895 2105 2313 2529 2615 2615 2605 2655 2986 3077 2997 2876 2876 2763 2646 2530 2489 2406 2362 2362 2274 2582 2609 2572 2406 2297 2207 2130 2010 2064 2169 2368 2368 2516 2647 2601 2492 2428 2365 2320 2236 1977 1882 1748 2027 2216 2216 2247 2430 2681 2885 2885 2956 3049 3082 3094 3036 2944 2903 2946 2946 3006 3293 3434 3598 3718 3718 3741 3830 -9999 -9999 -9999 -9999 -9999 -9999 -9999 -9999 -9999 -9999 -9999 -9999 -9999 -9999 -9999 -9999 -9999 -9999 -9999 -9999 -9999 -9999 -9999 -9999 -9999 -9999 -9999 -9999 -9999 -9999 -9999 -9999 -9999 -9999 -9999 -9999 -9999 -9999 -9999 -9999 -9999 -9999 -9999 -9999 -9999 -9999 -9999 -9999 -9999 -9999 -9999 -9999 -9999 -9999 -9999 -9999 -9999 -9999 -9999 -9999 -9999 -9999 -9999 -9999 -9999 -9999 -9999 -9999 -9999 -9999 -9999 -9999 -9999 -9999 -9999 -9999 -9999 -9999 -9999 -9999 -9999 -9999 -9999 -9999
-9999 -9999 -9999 -9999 -9999 -9999 -9999 -9999 -9999 -9999 -9999 -9999 -9999 -9999 -9999 -9999 -9999 -9999 -9999 -9999 -9999 -9999 -9999 -9999 -9999 -9999 -9999 -9999 -9999 -9999 -9999 -9999 -9999 -9999 -9999 -9999 -9999 -9999 -9999 -9999 -9999 -9999 -9999 -9999 -9999 -9999 -9999 -9999 3430 3408 3382 3307 3126 3006 2891 2831 2734 2767 2772 2659 2659 2620 2668 2698 2674 2622 2674 2698 2809 2864 2966 2930 3030 3030 2987 2870 2974 2734 2638 2638 2534 2333 2397 2476 2634 2673 2785 2785 2876 3008 2959 3033 3264 3264 3360 3284 3235 3287 3287 3280 3232 3232 2995 2934 2907 2885 2858 2881 2814 2802 2820 2725 2641 2470 2470 2317 2076 2076 2041 1942 1834 1834 1685 1537 1266 1421 1495 1620 1769 1921 2047 2383 2458 2321 2219 2122 2122 1935 1890 1775 1478 1654 1654 1952 2077 2096 2168 2259 2259 2490 2575 2675 2795 2894 2803 2803 2761 2645 2468 2387 2338 2249 2249 2220 2544 2440 2379 2261 2170 2116 2016 1965 2039 2191 2374 2374 2523 2445 2396 2319 2249 2168 2088 2053 2045 1965 1818 1899 1973 1973 2112 2170 2401 2570 2570 2608 2793 2748 2713 2704 3038 3045 3164 3164 3179 3279 3507 3638 3871 3871 3967 -9999 -9999 -9999 -9999 -9999 -9999 -9999 -9999 -9999 -9999 -9999 -9999 -9999 -9999 -9999 -9999 -9999 -9999 -9999 -9999 -9999 -9999 -9999 -9999 -9999 -9999 -9999 -9999 -9999 -9999 -9999 -9999 -9999 -9999 -9999 -9999 -9999 -9999 -9999 -9999 -9999 -9999 -9999 -9999 -9999 -9999 -9999 -9999 -9999 -9999 -9999 -9999 -9999 -9999 -9999 -9999 -9999 -9999 -9999 -9999 -9999 -9999 -9999 -9999 -9999 -9999 -9999 -9999 -9999 -9999 -9999 -9999 -9999 -9999 -9999 -9999 -9999 -9999 -9999 -9999 -9999 -9999 -9999 -9999 -9999
-9999 -9999 -9999 -9999 -9999 -9999 -9999 -9999 -9999 -9999 -9999 -9999 -9999 -9999 -9999 -9999 -9999 -9999 -9999 -9999 -9999 -9999 -9999 -9999 -9999 -9999 -9999 -9999 -9999 -9999 -9999 -9999 -9999 -9999 -9999 -9999 -9999 -9999 -9999 -9999 -9999 -9999 -9999 -9999 -9999 -9999 -9999 3575 3385 3300 3175 3070 3116 3037 2955 2891 2722 2738 2813 2804 2804 2770 2687 2525 2568 2521 2477 2422 2433 2449 2467 2519 2619 2619 2796 2884 2963 2731 2673 2673 2515 2348 2320 2356 2501 2527 2698 2698 2768 2810 2852 2953 3168 3168 3268 3317 3149 3117 3117 3212 3226 3226 3098 3045 2963 2997 2994 2981 2938 2915 2886 2706 2590 2359 2359 2239 1961 1961 1844 1722 1697 1697 1519 1465 1256 1431 1525 1643 1755 1889 2021 2330 2426 2286 2189 2069 2069 1815 1729 1621 1416 1568 1568 1776 1857 1894 2024 2084 2084 2296 2368 2595 2723 2833 2801 2801 2714 2636 2457 2375 2319 2194 2194 2172 2511 2368 2340 2195 2106 2064 1988 1899 2056 2120 2397 2397 2405 2308 2253 2167 2140 2103 2065 1951 1882 1855 1756 2015 2000 2000 2046 2090 2191 2309 2309 2390 2447 2510 2577 2647 2983 3109 3352 3352 3281 3311 3552 3779 3887 -9999 -9999 -9999 -9999 -9999 -9999 -9999 -9999 -9999 -9999 -9999 -9999 -9999 -9999 -9999 -9999 -9999 -9999 -9999 -9999 -9999 -9999 -9999 -9999 -9999 -9999 -9999 -9999 -9999 -9999 -9999 -9999 -9999 -9999 -9999 -9999 -9999 -9999 -9999 -9999 -9999 -9999 -9999 -9999 -9999 -9999 -9999 -9999 -9999 -9999 -9999 -9999 -9999 -9999 -9999 -9999 -9999 -9999 -9999 -9999 -9999 -9999 -9999 -9999 -9999 -9999 -9999 -9999 -9999 -9999 -9999 -9999 -9999 -9999 -9999 -9999 -9999 -9999 -9999 -9999 -9999 -9999 -9999 -9999 -9999 -9999 -9999
-9999 -9999 -9999 -9999 -9999 -9999 -9999 -9999 -9999 -9999 -9999 -9999 -9999 -9999 -9999 -9999 -9999 -9999 -9999 -9999 -9999 -9999 -9999 -9999 -9999 -9999 -9999 -9999 -9999 -9999 -9999 -9999 -9999 -9999 -9999 -9999 -9999 -9999 -9999 -9999 -9999 -9999 3945 3962 3971 3869 3869 3709 3562 3363 3229 3025 2963 2894 2935 2934 2939 2945 2897 2897 2900 2842 2752 2597 2651 2674 2538 2441 2396 2358 2350 2458 2540 2540 2616 2698 2801 2705 2623 2623 2441 2315 2361 2400 2447 2482 2573 2573 2628 2794 2861 2956 3130 3130 3231 3212 3099 3009 3009 3040 3136 3136 3096 3085 3113 3088 3104 3080 3057 2992 2831 2704 2558 2342 2342 2184 1886 1886 1739 1547 1447 1447 1278 1290 1162 1395 1474 1602 1725 1869 1980 2306 2428 2280 2189 2058 2058 1807 1714 1572 1405 1658 1658 1750 1793 1834 1935 2041 2041 2220 2311 2551 2748 2851 2791 2791 2683 2605 2472 2388 2292 2119 2119 2149 2372 2324 2280 2148 2060 2005 1904 1812 2082 2162 2323 2323 2259 2152 2111 2047 2027 2034 1984 1897 1718 1694 1606 1986 2133 2133 2254 2281 2286 2394 2394 2521 2557 2625 2726 2749 2956 3110 3454 3454 3398 3413 3566 3748 -9999 -9999 -9999 -9999 -9999 -9999 -9999 -9999 -9999 -9999 -9999 -9999 -9999 -9999 -9999 -9999 -9999 -9999 -9999 -9999 -9999 -9999 -9999 -9999 -9999 -9999 -9999 -9999 -9999 -9999 -9999 -9999 -9999 -9999 -9999 -9999 -9999 -9999 -9999 -9999 -9999 -9999 -9999 -9999 -9999 -9999 -9999 -9999 -9999 -9999 -9999 -9999 -9999 -9999 -9999 -9999 -9999 -9999 -9999 -9999 -9999 -9999 -9999 -9999 -9999 -9999 -9999 -9999 -9999 -9999 -9999 -9999 -9999 -9999 -9999 -9999 -9999 -9999 -9999 -9999 -9999 -9999 -9999 -9999 -9999 -9999 -9999 -9999
